ply
format ascii 1.0
comment PCL generated
element vertex 1850
property float x
property float y
property float z
element face 0
element camera 0
property float view_px
property float view_py
property float view_pz
property float x_axisx
property float x_axisy
property float x_axisz
property float y_axisx
property float y_axisy
property float y_axisz
property float z_axisx
property float z_axisy
property float z_axisz
property float focal
property float scalex
property float scaley
property float centerx
property float centery
property int viewportx
property int viewporty
property float k1
property float k2
end_header
-124.09 3.4231 6.1736002
-124.09 3.4228001 6.2842999
-123.86 3.4221001 6.1736002
-123.86 3.4222 6.2842999
-124.09 3.4267001 6.3948998
-124.2 3.4337001 6.5054998
-124.09 3.4302001 6.5054998
-123.86 3.4277 6.3948998
-123.86 3.4267001 6.5054998
-123.79 3.4624 6.1736002
-123.8 3.4624 6.2842999
-123.75 3.6835999 6.1736002
-123.74 3.7943001 6.1736002
-123.74 3.6835999 6.2842999
-123.74 3.7943001 6.2842999
-123.8 3.4624 6.3948998
-123.79 3.4624 6.5054998
-123.74 3.6835999 6.3948998
-123.74 3.7943001 6.3948998
-123.74 3.6835999 6.5054998
-123.74 3.7943001 6.5054998
-123.74 3.9049001 6.1736002
-123.73 4.0156002 6.1736002
-123.74 3.9049001 6.2842999
-123.73 4.0156002 6.2842999
-123.73 4.1262002 6.1736002
-123.73 4.1262002 6.2842999
-123.74 3.9049001 6.3948998
-123.73 4.0156002 6.3948998
-123.73 3.9049001 6.5054998
-123.73 4.0156002 6.5054998
-123.73 4.1262002 6.3948998
-123.72 4.2368999 6.3948998
-123.73 4.1262002 6.5054998
-123.72 4.2368999 6.5054998
-124.75 3.4986 6.6162
-124.75 3.4953001 6.7268
-124.86 3.5416 6.9481001
-124.63 3.4624 6.9481001
-124.53 3.4546001 6.9481001
-124.64 3.4630001 6.9481001
-124.31 3.4384999 6.8375001
-124.42 3.4458001 6.9481001
-124.97 3.6269 7.0588002
-124.64 3.4624 6.9875998
-124.53 3.4535999 7.0588002
-124.42 3.4463 7.0588002
-124.31 3.4374001 7.0588002
-124.2 3.4321001 6.6162
-124.09 3.4263 6.6162
-123.98 3.4221001 6.6162
-123.86 3.4219999 6.6162
-124.2 3.4295001 6.8375001
-123.98 3.4159 6.9481001
-123.8 3.4624 6.7268
-123.74 3.6835999 6.6162
-123.74 3.7943001 6.6162
-123.74 3.6835999 6.7268
-123.74 3.7943001 6.7268
-123.77 3.4624 6.9481001
-123.74 3.7943001 6.9481001
-123.74 3.9049001 6.6162
-123.73 4.0156002 6.6162
-123.74 3.9049001 6.7268
-123.73 4.0156002 6.7268
-123.73 4.1262002 6.6162
-123.73 4.1262002 6.7268
-123.74 3.9049001 6.8375001
-123.73 4.0156002 6.8375001
-123.74 3.9049001 6.9481001
-123.86 3.4140999 7.0588002
-123.78 3.4624 7.0588002
-123.74 3.9049001 7.0588002
-126.08 4.2859001 7.0588002
-126.08 4.3713002 7.0588002
-126.08 4.3474998 7.0605001
-125.96 4.3474998 6.9481001
-125.86 4.2740002 6.9481001
-125.86 4.3474998 6.9391999
-125.98 4.4580998 6.9481001
-125.97 4.3565998 6.9481001
-125.97 4.4580998 6.9450002
-125.86 4.4580998 6.9352999
-125.75 4.3035998 6.9481001
-125.75 4.3474998 6.9436002
-125.7 4.3474998 6.9481001
-125.75 4.4580998 6.9366999
-125.63 4.3702998 6.9481001
-125.63 4.4580998 6.9389
-126.01 4.5688 6.9481001
-125.86 4.5688 6.9292998
-125.86 4.6794 6.9232001
-125.75 4.5688 6.9261999
-125.63 4.5688 6.9274001
-125.75 4.6794 6.9231
-125.63 4.6794 6.9238
-125.52 4.3738999 6.9481001
-125.52 4.4580998 6.9368
-125.41 4.4359002 6.9481001
-125.41 4.4580998 6.9443998
-125.35 4.4580998 6.9481001
-125.52 4.5688 6.9285002
-125.41 4.5688 6.9299998
-125.52 4.6794 6.9229999
-125.41 4.6794 6.9224
-125.3 4.4685998 6.9481001
-125.3 4.5688 6.9266
-125.19 4.5177999 6.9481001
-125.19 4.5688 6.9348001
-125.3 4.6794 6.921
-125.19 4.6794 6.9222002
-125.75 4.7901001 6.9201002
-125.63 4.7901001 6.9208002
-125.75 4.9007001 6.9169002
-125.63 4.9007001 6.9183998
-125.63 5.0113001 6.9137998
-125.63 5.1220002 6.9068999
-125.52 4.7901001 6.921
-125.41 4.7901001 6.9204998
-125.52 4.9007001 6.9177999
-125.41 4.9007001 6.9180002
-125.3 4.7901001 6.9197001
-125.19 4.7901001 6.9203
-125.3 4.9007001 6.9183998
-125.19 4.9007001 6.9222999
-125.52 5.0113001 6.9173999
-125.41 5.0113001 6.9201999
-125.52 5.1220002 6.9190001
-125.41 5.1220002 6.9404001
-125.3 5.0113001 6.9334998
-125.19 5.0113001 6.9447999
-125.39 5.1220002 6.9481001
-125.3 5.0521998 6.9481001
-125.19 5.0177999 6.9481001
-126.08 4.3474998 7.0588002
-125.97 4.3474998 6.9484
-125.63 4.3474998 6.9505
-125.54 4.2368999 7.0588002
-125.52 4.2427001 7.0588002
-125.52 4.3474998 6.9558001
-125.41 4.3474998 6.9888
-125.3 4.4580998 6.9524002
-125.19 4.4580998 6.9812999
-125.3 5.1220002 6.9889998
-125.19 5.1220002 7.0447001
-126.85 5.6752 7.1367998
-126.85 5.7858 7.1370001
-126.74 5.7858 7.1392002
-126.85 5.8965001 7.1374002
-126.74 5.8965001 7.1385999
-126.85 6.0071001 7.1371002
-126.74 6.0071001 7.1389999
-126.63 5.8965001 7.1396999
-126.63 6.0071001 7.1406999
-125.52 5.2326002 6.8976998
-125.44 5.2326002 6.9481001
-125.41 5.1508002 6.9481001
-125.52 5.3432999 6.8566999
-125.45 5.3432999 6.9481001
-125.52 5.4414001 6.9481001
-125.63 5.4312 7.0588002
-125.63 5.4538999 7.0806999
-125.41 5.2326002 6.9696999
-125.46 5.3432999 7.0588002
-125.41 5.3065 7.0588002
-125.41 5.3432999 7.0963998
-125.34 5.2326002 7.0588002
-125.3 5.2021999 7.0588002
-125.19 5.1338 7.0588002
-125.3 5.2326002 7.0855999
-125.19 5.2326002 7.1230001
-125.3 5.3432999 7.1289001
-125.19 5.3432999 7.1392999
-125.52 5.3860002 7.0588002
-125.52 5.4538999 7.1040001
-125.41 5.4538999 7.1195002
-125.52 5.5646 7.1188998
-125.41 5.5646 7.1209998
-125.3 5.4538999 7.1314998
-125.3 5.5646 7.1286001
-125.52 5.6752 7.1027002
-125.41 5.6752 7.1131001
-125.41 5.7858 7.1216002
-125.3 5.6752 7.1289001
-125.3 5.7858 7.1370001
-125.41 5.8965001 7.1353002
-125.3 5.8965001 7.1367998
-125.3 6.0071001 7.1311998
-125.19 6.0071001 7.1392002
-123.72 4.3474998 5.7309999
-123.72 4.3474998 5.8417001
-123.71 4.5688 5.7309999
-123.71 4.5688 5.8417001
-123.72 4.3474998 5.9523001
-123.72 4.3474998 6.0630002
-123.71 4.5688 5.9523001
-123.7 4.7901001 5.8417001
-123.7 4.7901001 5.9523001
-123.7 4.7901001 6.0630002
-123.72 4.3474998 6.1736002
-123.72 4.3474998 6.2842999
-123.72 4.3474998 6.3948998
-123.71 4.6794 6.3948998
-123.71 4.6794 6.5054998
-123.7 4.7901001 6.1736002
-123.7 4.7901001 6.2842999
-125.08 4.5595002 6.9481001
-125.08 4.5688 6.9447999
-124.97 4.5650001 6.9481001
-124.97 4.5688 6.9464002
-125.08 4.6794 6.9239001
-124.97 4.6794 6.9247999
-124.95 4.5688 6.9481001
-124.86 4.5949001 6.9481001
-124.86 4.6794 6.9281998
-124.75 4.6752 6.9481001
-124.75 4.6794 6.9466
-124.75 4.6794 6.9481001
-125.08 4.7901001 6.9224
-124.97 4.7901001 6.9254999
-125.08 4.9007001 6.9253998
-124.97 4.9007001 6.9310002
-124.86 4.7901001 6.9298
-124.75 4.7901001 6.9322
-124.86 4.9007001 6.9366999
-124.75 4.9007001 6.9337001
-125.16 5.0113001 6.9481001
-125.08 4.9898 6.9481001
-124.97 4.9582 6.9481001
-124.86 4.9442 6.9481001
-124.75 4.9442 6.9481001
-124.64 4.7901001 6.9481001
-124.65 4.9007001 6.9481001
-125.08 5.0113001 6.9631
-124.97 5.0113001 6.9913001
-125.16 5.1220002 7.0588002
-125.08 5.0970001 7.0588002
-124.97 5.0665002 7.0588002
-125.08 5.1220002 7.0851998
-124.97 5.1220002 7.1108999
-124.86 5.0113001 7.0120001
-124.75 5.0113001 7.0583
-124.86 5.0405002 7.0588002
-124.75 5.0114999 7.0588002
-124.86 5.1220002 7.1266999
-124.64 4.7901001 6.9505
-124.64 4.9007001 6.9548998
-124.53 4.9007001 7.0528998
-124.53 4.9007001 7.0588002
-124.75 5.0113001 7.0588002
-124.64 4.9843998 7.0588002
-124.53 4.9061999 7.0588002
-124.64 5.0113001 7.1012001
-124.53 5.0113001 7.1306
-123.71 4.6794 6.6162
-123.71 4.6794 6.9481001
-123.71 4.7901001 6.6162
-123.71 4.7901001 6.7268
-123.71 4.7901001 6.8375001
-123.75 4.8843999 6.8375001
-123.71 4.7901001 6.9481001
-123.76 4.9007001 6.9481001
-123.75 4.8952999 6.9481001
-123.71 4.6794 7.0588002
-123.71 4.7901001 7.0588002
-123.75 4.9007001 7.0570998
-123.75 4.9007001 7.0588002
-123.75 4.9008002 7.0588002
-125.08 5.2326002 7.1381998
-126.85 6.1178002 7.1366
-126.74 6.1178002 7.1385002
-126.85 6.2284002 7.1367002
-126.74 6.2284002 7.1391001
-126.63 6.1178002 7.1402001
-126.85 6.3390999 7.1360002
-126.74 6.3390999 7.1385999
-126.85 6.4496999 7.1350002
-126.74 6.4496999 7.1370001
-126.63 6.3390999 7.1402001
-126.63 6.4496999 7.1388998
-126.52 6.4496999 7.1394
-126.41 6.4496999 7.1392002
-126.3 6.4496999 7.1396999
-126.19 6.4496999 7.138
-126.85 6.5602999 7.1338
-126.74 6.5602999 7.1359
-126.85 6.671 7.1322999
-126.74 6.671 7.1343999
-126.63 6.5602999 7.1378999
-126.52 6.5602999 7.1385999
-126.63 6.671 7.1364002
-126.52 6.671 7.1385999
-126.85 6.7816 7.1308999
-126.74 6.7816 7.1332998
-126.85 6.8923001 7.1311002
-126.74 6.8923001 7.1335001
-126.63 6.7816 7.1349001
-126.52 6.7816 7.1375999
-126.63 6.8923001 7.1339002
-126.52 6.8923001 7.1356001
-126.41 6.5602999 7.1385999
-126.41 6.671 7.1395998
-126.19 6.5602999 7.1364999
-126.08 6.5602999 7.1346998
-126.19 6.671 7.1382999
-126.08 6.671 7.1366
-126.41 6.7816 7.1388998
-126.3 6.7816 7.1392999
-126.41 6.8923001 7.1370001
-126.3 6.8923001 7.1378999
-126.19 6.7816 7.1360002
-126.08 6.7816 7.1348
-126.19 6.8923001 7.1381001
-125.3 6.1178002 7.1329999
-125.3 6.2284002 7.1360002
-125.97 6.671 7.1331
-125.97 6.7816 7.1336002
-125.86 6.7816 7.1338
-125.97 6.8923001 7.1385002
-125.86 6.8923001 7.1290998
-125.75 6.8923001 7.1136999
-126.85 7.0029001 7.1318002
-126.74 7.0029001 7.1329002
-126.85 7.1135001 7.1285
-126.74 7.1135001 7.1286998
-126.63 7.0029001 7.132
-126.52 7.0029001 7.1335001
-126.63 7.1135001 7.1279998
-126.52 7.1135001 7.1304998
-126.85 7.2241998 7.1209002
-126.74 7.2241998 7.1219001
-126.85 7.3347998 7.1150999
-126.74 7.3347998 7.1163001
-126.63 7.2241998 7.1233001
-126.52 7.2241998 7.1273999
-126.63 7.3347998 7.1188998
-126.52 7.3347998 7.1237998
-126.41 7.0029001 7.1374998
-126.41 7.1135001 7.1368999
-126.08 7.1135001 7.1336002
-126.3 7.3347998 7.1304998
-126.3 7.4454999 7.1297002
-126.19 7.3347998 7.1308999
-126.19 7.4454999 7.1303
-126.08 7.3347998 7.1314001
-126.08 7.4454999 7.1318998
-126.3 7.5560999 7.1304998
-126.19 7.5560999 7.1307998
-126.08 7.5560999 7.1313
-126.52 7.5560999 7.1191001
-126.52 7.6668 7.1192999
-126.41 7.5560999 7.1255999
-126.41 7.6668 7.1264
-126.3 7.6668 7.1325998
-126.52 7.7774 7.1212001
-126.41 7.7774 7.1286001
-126.3 7.7774 7.1353002
-126.19 7.6668 7.1336999
-126.08 7.6668 7.1342001
-126.19 7.7774 7.1375999
-125.97 7.0029001 7.1359
-125.86 7.0029001 7.1220999
-125.97 7.1135001 7.1254001
-125.86 7.1135001 7.1132002
-125.75 7.0029001 7.1093001
-125.63 7.0029001 7.1125002
-125.75 7.1135001 7.1110001
-125.63 7.1135001 7.1209002
-126.08 7.2241998 7.1315999
-125.97 7.2241998 7.1283002
-125.86 7.2241998 7.1125998
-125.97 7.3347998 7.131
-125.86 7.3347998 7.1209998
-125.75 7.2241998 7.1052999
-125.63 7.2241998 7.1195998
-125.75 7.3347998 7.1131001
-125.63 7.3347998 7.1176
-125.52 7.2241998 7.1266999
-125.52 7.3347998 7.1240001
-125.41 7.3347998 7.1247001
-125.97 7.4454999 7.1300001
-125.86 7.4454999 7.1223998
-125.97 7.5560999 7.1313
-125.86 7.5560999 7.1208
-125.75 7.4454999 7.1173
-125.63 7.4454999 7.1206002
-125.75 7.5560999 7.1135001
-125.63 7.5560999 7.1176
-125.97 7.6668 7.1289001
-125.86 7.6668 7.1208
-125.97 7.7774 7.1287999
-125.86 7.7774 7.1128998
-125.75 7.6668 7.1199002
-125.63 7.6668 7.1150999
-125.75 7.7774 7.1094999
-125.63 7.7774 7.1146998
-125.52 7.4454999 7.1163998
-125.41 7.4454999 7.1156001
-125.52 7.5560999 7.1143999
-125.41 7.5560999 7.1169
-125.3 7.4454999 7.118
-125.3 7.5560999 7.1160002
-125.19 7.5560999 7.1283998
-125.52 7.6668 7.1139998
-125.41 7.6668 7.1128001
-125.52 7.7774 7.1139998
-125.41 7.7774 7.1090999
-125.3 7.6668 7.1167998
-125.19 7.6668 7.1322999
-125.3 7.7774 7.1155
-125.19 7.7774 7.1264
-123.62 6.3390999 5.8417001
-123.62 6.4496999 5.8417001
-123.62 6.3390999 5.9523001
-123.61 6.4496999 5.9523001
-123.62 6.3390999 6.0630002
-123.61 6.4496999 6.0630002
-123.61 6.5602999 5.8417001
-123.61 6.5602999 5.9523001
-123.6 6.671 5.9523001
-123.61 6.5602999 6.0630002
-123.6 6.671 6.0630002
-123.6 6.7816 5.9523001
-123.6 6.7816 6.0630002
-123.59 6.8923001 6.0630002
-123.62 6.3390999 6.1736002
-123.62 6.4496999 6.1736002
-123.62 6.3390999 6.2842999
-123.61 6.4496999 6.2842999
-123.62 6.3390999 6.3948998
-123.61 6.4496999 6.3948998
-123.62 6.3390999 6.5054998
-123.62 6.4496999 6.5054998
-123.61 6.5602999 6.1736002
-123.6 6.671 6.1736002
-123.61 6.5602999 6.2842999
-123.6 6.671 6.2842999
-123.6 6.7816 6.1736002
-123.59 6.8923001 6.1736002
-123.6 6.7816 6.2842999
-123.59 6.8923001 6.2842999
-123.61 6.5602999 6.3948998
-123.6 6.671 6.3948998
-123.61 6.5602999 6.5054998
-123.6 6.671 6.5054998
-123.6 6.7816 6.3948998
-123.59 6.8923001 6.3948998
-123.6 6.7816 6.5054998
-123.6 6.8923001 6.5054998
-123.59 7.0029001 6.0630002
-123.58 7.1135001 6.0630002
-123.59 7.0029001 6.1736002
-123.58 7.1135001 6.1736002
-123.59 7.0029001 6.2842999
-123.58 7.1135001 6.2842999
-123.58 7.2241998 6.1736002
-123.57 7.3347998 6.1736002
-123.58 7.2241998 6.2842999
-123.58 7.3347998 6.2842999
-123.59 7.0029001 6.3948998
-123.59 7.1135001 6.3948998
-123.59 7.0029001 6.5054998
-123.59 7.1135001 6.5054998
-123.58 7.2241998 6.3948998
-123.58 7.3347998 6.3948998
-123.58 7.3347998 6.5054998
-123.57 7.5560999 6.2842999
-123.62 6.4496999 6.6162
-123.62 6.4496999 6.7268
-123.62 6.4496999 6.8375001
-123.62 6.4496999 6.9481001
-123.61 6.5602999 6.6162
-123.6 6.671 6.6162
-123.61 6.5602999 6.7268
-123.61 6.671 6.7268
-123.6 6.7816 6.6162
-123.6 6.8923001 6.6162
-123.6 6.8923001 6.7268
-123.61 6.5602999 6.8375001
-123.61 6.671 6.8375001
-123.61 6.5602999 6.9481001
-123.61 6.671 6.9481001
-123.6 6.8923001 6.8375001
-123.6 6.8923001 6.9481001
-123.62 6.4496999 7.0588002
-124.09 6.8923001 7.1278
-123.61 6.5602999 7.0588002
-123.61 6.671 7.0588002
-123.6 6.8923001 7.0588002
-123.57 7.5560999 6.9481001
-124.09 7.0029001 7.1157999
-124.09 7.1135001 7.1174002
-123.98 7.0029001 7.0967999
-123.98 7.1135001 7.0921998
-124.09 7.2241998 7.1177001
-124.09 7.3347998 7.1213999
-123.98 7.2241998 7.0878
-123.98 7.3347998 7.0763001
-123.59 7.1135001 7.0588002
-123.58 7.3347998 7.0588002
-124.09 7.4454999 7.1254001
-124.09 7.5560999 7.1283002
-123.98 7.4454999 7.0823998
-123.98 7.5560999 7.0872002
-124.09 7.6668 7.1336002
-123.98 7.6668 7.0893002
-123.98 7.7774 7.1146002
-123.57 7.5560999 7.0588002
-126.85 7.888 3.5881
-126.74 7.888 3.5871
-126.85 7.9987001 3.5876
-126.74 7.9987001 3.5867
-126.63 7.888 3.5866001
-126.52 7.888 3.5875001
-126.63 7.9987001 3.5859001
-126.52 7.9987001 3.5867
-126.85 8.1092997 3.5869
-126.74 8.1092997 3.5864999
-126.74 8.2200003 3.5862
-126.63 8.1092997 3.5862
-126.52 8.1092997 3.5864
-126.63 8.2200003 3.5861001
-126.52 8.2200003 3.5871999
-126.41 7.9987001 3.5869
-126.3 7.9987001 3.5881
-126.19 7.9987001 3.5927999
-126.08 7.9987001 3.5964
-126.41 8.1092997 3.5867
-126.3 8.1092997 3.5876999
-126.41 8.2200003 3.5876
-126.3 8.2200003 3.5896001
-126.19 8.1092997 3.5936999
-126.08 8.1092997 3.6022999
-126.19 8.2200003 3.5983
-126.08 8.2200003 3.6101999
-126.85 8.3305998 3.5857999
-126.85 8.4413004 3.5859001
-126.74 8.4413004 3.586
-126.63 8.4413004 3.5871999
-126.52 8.4413004 3.5895
-126.85 8.5518999 3.5848
-126.74 8.5518999 3.5857
-126.85 8.6625004 3.5840001
-126.74 8.6625004 3.5869999
-126.63 8.5518999 3.5890999
-126.52 8.5518999 3.5955999
-126.63 8.6625004 3.5936999
-126.52 8.6625004 3.6013
-126.41 8.3305998 3.589
-126.3 8.3305998 3.5962999
-126.19 8.3305998 3.6075001
-126.08 8.3305998 3.6177001
-126.19 8.4413004 3.6152
-126.08 8.4413004 3.6221001
-126.41 8.5518999 3.6040001
-126.3 8.5518999 3.6117001
-126.41 8.6625004 3.6077001
-126.3 8.6625004 3.6119001
-126.19 8.5518999 3.6178999
-126.19 8.6625004 3.6135001
-126.08 8.6625004 3.6131001
-125.86 7.888 3.6026001
-125.75 7.888 3.6006
-125.63 7.888 3.5934
-125.97 8.1092997 3.6071
-125.86 8.1092997 3.6073999
-125.97 8.2200003 3.6156001
-125.86 8.2200003 3.6122
-125.52 7.888 3.5920999
-125.41 7.888 3.6001999
-125.41 7.9987001 3.5957
-125.3 7.888 3.6071999
-125.19 7.888 3.6171999
-125.3 7.9987001 3.6034999
-125.19 7.9987001 3.6150999
-125.63 8.1092997 3.5901999
-125.63 8.2200003 3.5905001
-125.52 8.2200003 3.5831001
-125.41 8.2200003 3.5845001
-125.3 8.2200003 3.5934
-125.86 8.3305998 3.6169
-125.75 8.2200003 3.6033001
-125.75 8.3305998 3.6054001
-125.63 8.3305998 3.5964999
-125.86 8.4413004 3.6166999
-125.75 8.4413004 3.6066
-125.63 8.4413004 3.5975001
-125.97 8.4413004 3.6231
-125.97 8.6625004 3.6092999
-125.86 8.6625004 3.6029
-125.75 8.5518999 3.6029999
-125.63 8.5518999 3.5983
-125.75 8.6625004 3.6001
-125.63 8.6625004 3.5996001
-125.52 8.3305998 3.5843
-125.41 8.3305998 3.5743001
-125.52 8.4413004 3.5915
-125.41 8.4413004 3.5876999
-125.3 8.3305998 3.5871999
-125.19 8.3305998 3.6071
-125.3 8.4413004 3.5922
-125.19 8.4413004 3.605
-125.52 8.5518999 3.5948
-125.41 8.5518999 3.5962999
-125.41 8.6625004 3.5971
-125.3 8.5518999 3.596
-125.19 8.5518999 3.6076
-125.3 8.6625004 3.5987
-125.19 8.6625004 3.6125
-126.85 8.7732 3.585
-126.74 8.7732 3.5899
-126.85 8.8837996 3.5866001
-126.74 8.8837996 3.5918
-126.63 8.7732 3.5971999
-126.52 8.7732 3.6027999
-126.63 8.8837996 3.5966001
-126.52 8.8837996 3.5998001
-126.85 8.9945002 3.5875001
-126.74 8.9945002 3.5908999
-126.85 9.1050997 3.5869999
-126.74 9.1050997 3.5878
-126.63 8.9945002 3.5920999
-126.52 8.9945002 3.5931001
-126.63 9.1050997 3.5878999
-126.52 9.1050997 3.5882001
-126.41 8.7732 3.6062
-126.3 8.7732 3.6061001
-126.41 8.8837996 3.5999999
-126.3 8.8837996 3.5977001
-126.19 8.7732 3.6029999
-126.08 8.7732 3.6031001
-126.19 8.8837996 3.5943
-126.08 8.8837996 3.596
-126.41 8.9945002 3.5927999
-126.3 8.9945002 3.5913
-126.41 9.1050997 3.5883
-126.3 9.1050997 3.5883
-126.19 8.9945002 3.5912001
-126.08 8.9945002 3.5941
-126.19 9.1050997 3.5896001
-126.08 9.1050997 3.5932
-126.85 9.2157001 3.5861001
-126.74 9.2157001 3.5862999
-126.85 9.3263998 3.5848999
-126.74 9.3263998 3.5854001
-126.63 9.2157001 3.5864
-126.52 9.2157001 3.5867
-126.63 9.3263998 3.5855
-126.52 9.3263998 3.5862999
-126.85 9.4370003 3.5841999
-126.74 9.4370003 3.585
-126.74 9.5476999 3.5853
-126.63 9.4370003 3.5855999
-126.52 9.4370003 3.5864999
-126.63 9.5476999 3.5861001
-126.52 9.5476999 3.5868001
-126.41 9.2157001 3.5869999
-126.3 9.2157001 3.5880001
-126.41 9.3263998 3.5871
-126.3 9.3263998 3.5883
-126.19 9.2157001 3.5895
-126.08 9.2157001 3.592
-126.19 9.3263998 3.5899
-126.08 9.3263998 3.5920999
-126.41 9.4370003 3.5878
-126.3 9.4370003 3.5887001
-126.41 9.5476999 3.5883999
-126.3 9.5476999 3.5892
-126.19 9.4370003 3.5899999
-126.08 9.4370003 3.5929999
-126.19 9.5476999 3.5905001
-126.08 9.5476999 3.5934999
-125.97 8.7732 3.6015
-125.86 8.7732 3.5994999
-125.97 8.8837996 3.5985999
-125.86 8.8837996 3.5992999
-125.75 8.7732 3.6010001
-125.63 8.7732 3.6004
-125.75 8.8837996 3.6012001
-125.63 8.8837996 3.6004
-125.97 8.9945002 3.5964
-125.86 8.9945002 3.5983
-125.97 9.1050997 3.5952001
-125.86 9.1050997 3.5976
-125.75 8.9945002 3.6003001
-125.63 8.9945002 3.5994999
-125.75 9.1050997 3.6008999
-125.63 9.1050997 3.6013
-125.52 8.7732 3.5983
-125.41 8.7732 3.5964
-125.52 8.8837996 3.5976
-125.41 8.8837996 3.5973001
-125.3 8.7732 3.5992999
-125.19 8.7732 3.6122
-125.3 8.8837996 3.5996001
-125.19 8.8837996 3.6117001
-125.52 8.9945002 3.5985
-125.41 8.9945002 3.5985
-125.52 9.1050997 3.5997
-125.41 9.1050997 3.5978999
-125.3 8.9945002 3.5997
-125.19 8.9945002 3.6138
-125.3 9.1050997 3.5994
-125.19 9.1050997 3.615
-125.97 9.2157001 3.5941999
-125.86 9.2157001 3.5969
-125.97 9.3263998 3.595
-125.86 9.3263998 3.5971
-125.75 9.2157001 3.6006
-125.63 9.2157001 3.6022
-125.75 9.3263998 3.6001999
-125.63 9.3263998 3.6015999
-125.97 9.4370003 3.5961001
-125.86 9.4370003 3.5978999
-125.97 9.5476999 3.596
-125.86 9.5476999 3.5985999
-125.75 9.4370003 3.6011
-125.63 9.4370003 3.6015999
-125.75 9.5476999 3.6011
-125.63 9.5476999 3.6025
-125.52 9.2157001 3.6003001
-125.41 9.2157001 3.5985
-125.52 9.3263998 3.6006999
-125.41 9.3263998 3.5980999
-125.3 9.2157001 3.5991001
-125.19 9.2157001 3.6126001
-125.3 9.3263998 3.6010001
-125.19 9.3263998 3.6173
-125.52 9.4370003 3.5999999
-125.41 9.4370003 3.5957999
-125.52 9.5476999 3.6013
-125.41 9.5476999 3.5975001
-125.3 9.4370003 3.6012001
-125.19 9.4370003 3.6221001
-125.3 9.5476999 3.5985
-125.19 9.5476999 3.6187
-123.65 8.4413004 2.5223999
-123.64 8.4526997 2.5223999
-123.66 8.4413004 2.6331
-123.64 8.4737997 2.6331
-123.67 8.4413004 2.7437
-123.64 8.5031004 2.7437
-123.61 8.5518999 2.7437
-123.7 8.4413004 2.8543
-123.64 8.5373001 2.8543
-123.75 8.4413004 2.9649999
-123.66 8.5518999 2.9649999
-123.64 8.5518999 2.9165001
-123.64 8.5618 2.9649999
-123.63 8.5518999 2.8543
-123.51 9.2157001 2.1905
-123.53 9.3263998 2.1905
-123.53 9.3198996 2.1905
-123.53 9.3263998 2.3011
-123.53 9.3263998 2.3011
-125.13 7.888 3.6287999
-125.12 7.9987001 3.6287999
-125.13 8.1092997 3.6287999
-125.08 7.888 3.6473
-124.97 7.888 3.7126
-125.08 7.9987001 3.6417
-124.97 7.9987001 3.6979001
-125.08 8.1092997 3.6443999
-124.97 8.1092997 3.6842999
-124.97 8.2200003 3.6659
-124.9 7.9987001 3.7395
-124.86 8.0516996 3.7395
-124.86 8.1092997 3.7154
-124.75 8.0998001 3.7395
-124.75 8.1092997 3.7316
-124.86 8.2200003 3.6723001
-124.75 8.2200003 3.6636
-124.86 7.9987001 3.7635
-124.76 7.9987001 3.8501
-124.75 8.0031004 3.8501
-124.69 8.1092997 3.7395
-124.64 8.1202002 3.7395
-124.64 8.2200003 3.6566
-124.53 8.2097998 3.7395
-124.53 8.2200003 3.7219
-124.64 8.0913 3.8501
-124.64 8.1092997 3.7714
-124.62 8.1092997 3.8501
-124.53 8.2200003 3.8501
-124.53 8.2200003 3.8485999
-124.52 8.2200003 3.7395
-124.64 8.3305998 3.6470001
-124.53 8.3305998 3.6810999
-124.53 8.2286997 3.8501
-124.49 8.3305998 3.7395
-124.47 8.4413004 3.7395
-124.49 8.3305998 3.8501
-124.46 8.4413004 3.8501
-124.45 8.5518999 3.8501
-123.88 7.888 2.9649999
-123.9 7.888 3.0755999
-123.88 7.9987001 2.9649999
-123.89 7.9987001 3.0755999
-123.87 8.1092997 2.9649999
-123.89 8.1092997 3.0755999
-123.87 8.2200003 3.0755999
-123.8 8.2200003 3.1863
-123.81 8.3305998 2.9649999
-123.84 8.3305998 3.0755999
-123.79 8.4413004 3.0755999
-123.75 8.4386997 2.9649999
-123.75 8.4413004 2.9688001
-123.79 8.3305998 3.1863
-123.77 8.4413004 3.1863
-123.75 8.4989996 3.0755999
-123.7 8.5518999 3.0755999
-123.64 8.5797997 3.0755999
-123.75 8.4871998 3.1863
-123.71 8.5518999 3.1863
-123.64 8.5895004 3.1863
-123.54 8.6625004 3.0755999
-123.55 8.6625004 3.1863
-123.75 8.3273001 3.2969
-123.75 8.3305998 3.2953999
-123.75 8.3305998 3.2969
-123.75 8.4413004 3.2269001
-123.74 8.4413004 3.2969
-123.74 8.4413004 3.4075999
-123.7 8.5518999 3.2969
-123.64 8.5934 3.2969
-123.7 8.5518999 3.4075999
-123.64 8.5895004 3.4075999
-123.55 8.6625004 3.2969
-123.54 8.6625004 3.4075999
-123.74 8.4413004 3.5181999
-123.7 8.5518999 3.5181999
-123.64 8.5881004 3.5181999
-123.7 8.5518999 3.6287999
-123.64 8.5950003 3.6287999
-123.54 8.6625004 3.5181999
-123.53 8.6625004 3.6287999
-123.7 8.5518999 3.7395
-123.64 8.5965996 3.7395
-123.7 8.5518999 3.8501
-123.64 8.5893002 3.8501
-123.53 8.6560001 3.7395
-123.53 8.6625004 3.635
-123.53 8.6625004 3.7395
-123.53 8.6623001 3.8501
-123.53 8.6625004 3.8501
-125.08 8.8837996 3.6261001
-125.05 8.8837996 3.6287999
-125.08 8.9945002 3.6285
-125.08 8.9945002 3.6287999
-125.1 9.1050997 3.6287999
-125.08 9.0101995 3.6287999
-124.97 8.8837996 3.6329999
-124.97 8.9945002 3.6338
-125.08 9.1050997 3.6303
-124.97 9.1050997 3.6359999
-124.86 8.9945002 3.6391001
-124.75 8.9945002 3.6427
-124.86 9.1050997 3.6393001
-124.75 9.1050997 3.6436999
-124.53 8.7732 3.6693001
-124.64 8.8837996 3.6419001
-124.53 8.8837996 3.6640999
-124.46 8.7732 3.7395
-124.45 8.8837996 3.7395
-124.43 8.8837996 3.8501
-124.64 8.9945002 3.6451001
-124.64 9.1050997 3.6486001
-124.53 9.1050997 3.6565001
-124.44 8.9945002 3.7395
-124.43 8.9945002 3.8501
-124.43 9.1050997 3.8501
-125.09 9.2157001 3.6287999
-125.11 9.3263998 3.6287999
-125.15 9.4370003 3.6287999
-125.14 9.5476999 3.6287999
-125.08 9.2157001 3.6305001
-125.08 9.3263998 3.6321001
-124.97 9.3263998 3.6394999
-124.86 9.2157001 3.6412001
-124.75 9.2157001 3.6458001
-124.86 9.3263998 3.6433001
-124.75 9.3263998 3.6473
-125.08 9.4370003 3.6348
-124.97 9.4370003 3.6408
-125.08 9.5476999 3.6356001
-124.97 9.5476999 3.6412001
-124.75 9.4370003 3.6477001
-124.75 9.5476999 3.6536
-124.53 9.2157001 3.6624
-124.64 9.3263998 3.6493001
-124.53 9.3263998 3.6896
-124.49 9.3263998 3.7395
-124.46 9.3263998 3.8501
-124.64 9.4370003 3.6631999
-124.64 9.5476999 3.6877
-124.49 9.4370003 3.8501
-123.53 8.6924 3.1863
-123.53 8.6904001 3.2969
-123.51 8.7732 3.2969
-123.53 8.6759996 3.4075999
-123.51 8.7732 3.4075999
-123.5 8.8837996 3.4075999
-123.53 8.6737003 3.5181999
-123.51 8.7732 3.5181999
-123.5 8.8837996 3.5181999
-123.53 8.6636 3.6287999
-123.51 8.7732 3.6287999
-123.5 8.8837996 3.6287999
-123.49 8.9945002 3.6287999
-123.51 8.7732 3.7395
-123.5 8.8837996 3.7395
-123.5 8.7732 3.8501
-123.5 8.8837996 3.8501
-123.49 8.9945002 3.7395
-123.49 9.1050997 3.7395
-123.49 8.9945002 3.8501
-123.5 9.1050997 3.8501
-123.55 9.2157001 3.8501
-123.53 9.1955004 3.8501
-126.52 9.6583004 3.5864
-126.41 9.6583004 3.5883
-126.3 9.6583004 3.5890999
-126.3 9.7690001 3.5892999
-126.19 9.6583004 3.5905001
-126.08 9.6583004 3.5932
-126.19 9.7690001 3.5905001
-126.08 9.7690001 3.5931001
-126.08 9.8795996 3.5933001
-125.97 9.6583004 3.5941
-125.86 9.6583004 3.5977001
-125.97 9.7690001 3.5934
-125.86 9.7690001 3.5969
-125.75 9.6583004 3.6013999
-125.63 9.6583004 3.6031001
-125.75 9.7690001 3.6025
-125.63 9.7690001 3.6041
-125.97 9.8795996 3.5957999
-125.86 9.8795996 3.5994
-125.97 9.9902 3.5982001
-125.86 9.9902 3.6010001
-125.75 9.8795996 3.6039
-125.63 9.8795996 3.6056001
-125.75 9.9902 3.6043
-125.63 9.9902 3.6070001
-125.52 9.6583004 3.6034
-125.41 9.6583004 3.602
-125.52 9.7690001 3.6041
-125.41 9.7690001 3.6048999
-125.3 9.6583004 3.6045001
-125.19 9.6583004 3.6201
-125.3 9.7690001 3.6113999
-125.19 9.7690001 3.6215
-125.52 9.8795996 3.6061001
-125.41 9.8795996 3.6064999
-125.52 9.9902 3.6078
-125.41 9.9902 3.6064999
-125.3 9.8795996 3.6106
-125.19 9.8795996 3.6166999
-125.3 9.9902 3.6046
-125.19 9.9902 3.5875001
-125.75 10.101 3.6043
-125.63 10.101 3.6078999
-125.52 10.101 3.6087999
-125.41 10.101 3.6064
-125.52 10.212 3.6085
-125.41 10.212 3.6043
-125.2 10.212 3.5181999
-125.19 10.18 3.5181999
-125.19 10.212 3.5106001
-125.3 10.101 3.5919001
-125.19 10.101 3.5399001
-125.3 10.212 3.5831001
-125.24 10.322 3.5181999
-125.19 10.322 3.4923999
-126.52 10.765 3.5912001
-126.19 10.654 3.5943
-126.08 10.654 3.5977001
-126.3 10.875 3.5974
-126.08 10.765 3.5985999
-125.25 10.765 3.4075999
-125.19 10.719 3.4075999
-125.19 10.765 3.3991001
-125.23 10.875 3.4075999
-125.19 10.875 3.4022
-125.19 10.926 3.4075999
-125.97 10.654 3.6006999
-125.97 10.765 3.6001999
-125.86 10.765 3.6022999
-125.86 10.875 3.6034999
-125.75 10.765 3.6040001
-125.63 10.765 3.5976
-125.75 10.875 3.6046
-125.63 10.875 3.5985
-125.41 10.654 3.539
-125.37 10.654 3.5181999
-125.4 10.765 3.5181999
-125.3 10.654 3.4797001
-125.3 10.765 3.4525001
-125.19 10.654 3.4312
-125.39 10.875 3.5181999
-125.3 10.875 3.4538
-125.41 10.765 3.527
-125.41 10.875 3.5308001
-125.75 10.986 3.6062
-125.63 10.986 3.6020999
-125.75 11.207 3.612
-125.52 10.875 3.5775001
-125.52 10.986 3.5881
-125.41 10.986 3.5518999
-125.52 11.097 3.6040001
-125.41 11.097 3.5962
-125.35 10.986 3.5181999
-125.3 10.986 3.4783001
-125.19 10.986 3.4187
-125.3 11.066 3.5181999
-125.28 11.097 3.5181999
-125.19 11.097 3.4414999
-125.3 11.097 3.5387001
-125.41 11.207 3.628
-125.41 11.217 3.6287999
-125.24 11.207 3.5181999
-125.19 11.207 3.4598999
-125.3 11.207 3.5947001
-125.3 11.318 3.6034999
-123.45 10.433 2.3011
-123.49 10.212 2.4117999
-123.45 10.433 2.4117999
-123.5 10.212 2.5223999
-123.49 10.322 2.5223999
-123.45 10.433 2.5223999
-123.51 10.212 2.6331
-123.5 10.322 2.6331
-123.45 10.433 2.6331
-123.53 10.212 2.7437
-123.53 10.221 2.7437
-123.53 10.212 2.7356999
-123.51 10.322 2.7437
-123.45 10.433 2.7437
-123.56 10.212 2.8543
-123.53 10.299 2.8543
-123.52 10.322 2.8543
-123.45 10.433 2.8543
-123.59 10.212 2.9649999
-123.53 10.318 2.9649999
-123.53 10.322 2.9649999
-123.45 10.433 2.9649999
-124.32 10.986 2.7437
-124.31 10.986 2.8241999
-124.31 11.097 2.7437
-124.31 11.097 2.7488999
-124.09 10.703 2.5223999
-123.43 10.543 2.5223999
-123.86 11.166 2.5223999
-124.09 10.706 2.6331
-124.09 10.709 2.7437
-124.09 10.713 2.8543
-124.09 10.716 2.9649999
-123.43 10.543 2.6331
-123.42 10.654 2.6331
-123.43 10.543 2.7437
-123.42 10.654 2.7437
-123.42 10.678 2.7437
-123.43 10.543 2.8543
-123.42 10.654 2.8543
-123.43 10.543 2.9649999
-123.43 10.654 2.9649999
-123.42 10.695 2.8543
-123.42 10.713 2.9649999
-123.86 11.167 2.6331
-123.86 11.159 2.7437
-124.28 11.097 2.8543
-123.86 11.141 2.8543
-124.86 10.376 3.4075999
-124.86 10.433 3.4052999
-124.75 10.324 3.4075999
-124.75 10.433 3.405
-124.66 10.212 3.4075999
-124.64 10.139 3.4075999
-124.64 10.212 3.4059
-124.64 10.322 3.4075999
-124.64 10.322 3.4071
-124.62 10.322 3.4075999
-124.67 10.433 3.4075999
-124.64 10.333 3.4075999
-125.14 9.6583004 3.6287999
-125.08 9.7455997 3.6287999
-125.08 9.7690001 3.6266999
-124.97 9.7292004 3.6287999
-124.97 9.7690001 3.6217
-124.86 9.7213001 3.6287999
-124.86 9.7690001 3.6157
-125 9.9902 3.5181999
-124.97 9.9798002 3.5181999
-124.97 9.9902 3.5095
-125.08 9.8795996 3.6046
-124.97 9.8795996 3.5836999
-125.08 9.9902 3.5469999
-124.86 9.9584999 3.5181999
-124.86 9.9902 3.4935
-124.75 9.9251003 3.5181999
-124.75 9.9902 3.4719
-124.86 9.8795996 3.569
-124.75 9.8795996 3.5537
-125.08 9.6583004 3.6336
-124.97 9.6583004 3.6364
-124.86 9.6583004 3.6389
-124.64 9.9071999 3.5181999
-124.64 9.9902 3.4417
-124.53 9.9193001 3.5181999
-124.53 9.9902 3.4461
-124.64 9.7947998 3.6287999
-124.64 9.8795996 3.5499001
-124.42 9.9610004 3.5181999
-124.42 9.9902 3.4860001
-124.64 9.6583004 3.6946001
-124.58 9.6583004 3.7395
-124.64 9.7690001 3.6479001
-124.54 9.7690001 3.7395
-124.54 9.6583004 3.8501
-124.53 9.7690001 3.8501
-125.14 10.101 3.5181999
-125.08 10.049 3.5181999
-125.08 10.101 3.5009
-124.97 10.101 3.4598
-125.08 10.212 3.4765999
-124.97 10.212 3.4458001
-124.86 10.101 3.4366
-124.75 10.101 3.4282
-124.86 10.212 3.4207001
-124.75 10.212 3.414
-125.08 10.322 3.4576001
-124.97 10.322 3.4288001
-124.86 10.322 3.4130001
-124.75 10.322 3.4075999
-124.53 10.101 3.4163001
-124.42 10.101 3.4335999
-124.31 10.101 3.4349
-124.31 10.212 3.4268
-124.64 10.433 3.4096999
-124.53 10.433 3.4196999
-124.42 10.322 3.4261999
-124.42 10.433 3.425
-123.75 9.7595997 2.9649999
-123.75 9.7690001 2.9742
-123.75 9.7690001 2.9649999
-123.75 9.8504 3.0755999
-123.72 9.8795996 2.9649999
-123.74 9.8795996 3.0755999
-123.69 9.9902 2.9649999
-123.71 9.9902 3.0755999
-123.72 9.8795996 3.1863
-123.7 9.9902 3.1863
-123.69 9.8795996 3.2969
-123.69 9.9902 3.2969
-123.68 9.8795996 3.4075999
-123.68 9.9902 3.4075999
-123.64 10.101 2.9649999
-123.69 10.101 3.0755999
-123.64 10.102 2.9649999
-123.64 10.193 3.0755999
-123.7 10.101 3.1863
-123.67 10.212 3.1863
-123.64 10.212 3.099
-123.63 10.212 3.0755999
-123.64 10.28 3.1863
-123.54 10.322 3.0755999
-123.53 10.322 3.0306001
-123.53 10.326 3.0755999
-123.45 10.433 3.0755999
-123.61 10.322 3.1863
-123.53 10.361 3.1863
-123.46 10.433 3.1863
-123.68 10.101 3.2969
-123.66 10.212 3.2969
-123.67 10.101 3.4075999
-123.65 10.212 3.4075999
-123.64 10.287 3.2969
-123.64 10.238 3.4075999
-123.62 10.322 3.2969
-123.53 10.377 3.2969
-123.47 10.433 3.2969
-123.6 10.322 3.4075999
-123.53 10.377 3.4075999
-123.48 10.433 3.4075999
-124.3 9.9902 3.5181999
-124.3 9.9902 3.6287999
-123.68 9.7690001 3.5181999
-123.67 9.9902 3.5181999
-123.67 9.8795996 3.6287999
-123.67 9.9902 3.6287999
-123.67 9.8795996 3.7395
-123.67 9.9902 3.7395
-123.67 9.9902 3.8501
-124.2 10.042 3.5181999
-124.2 10.101 3.461
-124.16 10.101 3.5181999
-124.2 10.212 3.4393001
-124.12 10.212 3.5181999
-124.2 10.094 3.6287999
-124.19 10.101 3.6287999
-124.14 10.212 3.6287999
-124.1 10.322 3.5181999
-124.09 10.387 3.5181999
-124.09 10.433 3.4897001
-124.12 10.322 3.6287999
-124.09 10.433 3.6287999
-124.09 10.433 3.6238999
-124.07 10.433 3.5181999
-123.66 10.101 3.5181999
-123.65 10.212 3.5181999
-123.66 10.101 3.6287999
-123.65 10.212 3.6287999
-123.64 10.226 3.5181999
-123.64 10.252 3.6287999
-123.66 10.101 3.7395
-123.66 10.101 3.8501
-124.96 10.654 3.4075999
-124.86 10.654 3.4072001
-124.83 10.654 3.4075999
-124.75 10.633 3.4075999
-125.16 10.765 3.4075999
-125.09 10.875 3.4075999
-125.05 10.875 3.4075999
-124.97 10.85 3.4075999
-124.97 10.875 3.4068999
-124.86 10.663 3.4075999
-124.86 10.807 3.4075999
-124.86 10.875 3.4033999
-124.76 10.875 3.4075999
-124.67 10.543 3.4075999
-124.4 10.765 3.4075999
-124.31 10.657 3.4075999
-124.44 10.875 3.4075999
-124.42 10.803 3.4075999
-124.42 10.875 3.3994
-125.06 10.986 3.4075999
-124.97 10.986 3.4045999
-124.97 11.035 3.4075999
-124.86 10.986 3.4031
-124.75 10.894 3.4075999
-124.75 10.986 3.4073
-124.86 11.03 3.4075999
-124.75 10.99 3.4075999
-124.75 10.986 3.4075999
-124.45 10.986 3.4075999
-124.42 10.986 3.3993001
-124.31 10.986 3.3095
-124.44 11.097 3.4075999
-124.42 11.097 3.3993001
-124.31 11.097 3.3346
-124.42 11.18 3.4075999
-124.4 11.207 3.4075999
-124.31 11.207 3.3664999
-124.31 11.259 3.4075999
-125.08 10.654 3.4175999
-124.97 10.654 3.4078
-124.75 10.654 3.4084001
-125.08 10.765 3.4119
-124.97 10.765 3.4079001
-125.08 10.875 3.4079001
-124.86 10.765 3.4085
-124.75 10.765 3.4121001
-124.75 10.875 3.4094
-124.64 10.543 3.4096999
-124.53 10.543 3.4194
-124.64 10.654 3.4096
-124.53 10.654 3.4175999
-124.42 10.543 3.4231999
-124.31 10.543 3.4214001
-124.42 10.654 3.4217999
-124.31 10.654 3.4084001
-124.64 10.765 3.4157
-124.53 10.765 3.4212
-124.64 10.875 3.4221001
-124.53 10.875 3.4217
-124.42 10.765 3.4133999
-125.08 10.986 3.4107001
-125.08 11.097 3.4263
-124.97 11.097 3.4165001
-124.86 11.097 3.4157
-124.75 11.097 3.4166
-125.08 11.207 3.4391999
-124.97 11.207 3.4288001
-124.97 11.318 3.431
-124.86 11.207 3.4219999
-124.75 11.207 3.4245999
-124.86 11.318 3.4233999
-124.75 11.318 3.4324999
-124.64 10.986 3.4205
-124.53 10.986 3.4175
-124.64 11.097 3.4247
-124.53 11.097 3.4244001
-124.64 11.207 3.4381001
-124.53 11.207 3.4442999
-124.64 11.318 3.4579999
-124.53 11.318 3.4811001
-124.42 11.207 3.4163001
-124.42 11.318 3.4909999
-124.31 11.318 3.5088
-124.09 10.716 3.0755999
-124.09 10.709 3.1863
-123.86 10.739 3.0755999
-123.98 10.695 3.1863
-123.86 10.685 3.1863
-124.3 10.654 3.4075999
-124.2 10.591 3.4075999
-124.2 10.654 3.3852
-124.09 10.582 3.4075999
-124.09 10.654 3.3529
-123.98 10.624 3.4075999
-123.98 10.654 3.3178999
-123.93 10.654 3.4075999
-124.2 10.721 3.2969
-124.09 10.685 3.2969
-123.98 10.662 3.2969
-123.86 10.667 3.2969
-123.86 10.74 3.4075999
-123.87 10.875 3.4075999
-123.86 10.873 3.4075999
-123.86 10.875 3.4061
-123.43 10.543 3.0755999
-123.43 10.654 3.0755999
-123.44 10.543 3.1863
-123.43 10.654 3.1863
-123.42 10.72 3.0755999
-123.42 10.743 3.1863
-123.44 10.543 3.2969
-123.43 10.654 3.2969
-123.44 10.543 3.4075999
-123.43 10.654 3.4075999
-123.86 10.765 3.4075999
-123.42 10.74 3.2969
-123.42 10.711 3.4075999
-124.28 11.097 3.2969
-123.92 11.097 3.2969
-123.98 11.097 3.4075999
-123.98 11.093 3.4075999
-123.98 11.097 3.4026
-124.2 11.27 3.4075999
-124.2 10.543 3.4161
-124.09 10.543 3.4286001
-124.09 10.449 3.6287999
-124.03 10.543 3.5181999
-123.98 10.641 3.5181999
-123.97 10.654 3.5181999
-124.06 10.543 3.6287999
-124.04 10.654 3.6287999
-123.98 10.654 3.5301001
-123.93 10.765 3.5181999
-123.86 10.765 3.4177001
-123.94 10.875 3.5181999
-124.03 10.765 3.6287999
-123.98 10.765 3.5694001
-124.04 10.875 3.6287999
-123.98 10.875 3.5566001
-123.44 10.543 3.5181999
-123.43 10.654 3.5181999
-123.44 10.543 3.6287999
-123.43 10.654 3.6287999
-123.42 10.705 3.5181999
-123.42 10.697 3.6287999
-123.43 10.654 3.7395
-123.43 10.654 3.8501
-123.42 10.695 3.7395
-123.42 10.707 3.8501
-124.3 11.318 3.5181999
-124.2 11.277 3.5181999
-124.3 11.318 3.6287999
-124.44 8.2200003 4.6245999
-124.42 8.2105999 4.6245999
-124.42 8.2200003 4.6204
-124.38 8.2200003 4.6245999
-124.44 8.1092997 4.7353001
-124.42 8.1000996 4.7353001
-124.42 8.1092997 4.7189999
-124.31 8.1084995 4.7353001
-124.31 8.1092997 4.7343001
-124.53 8.1911001 4.7353001
-124.53 8.2200003 4.6921
-124.31 8.2200003 4.6645999
-124.31 8.3172998 4.6245999
-124.31 8.3305998 4.6134
-123.71 8.5518999 3.9607999
-123.53 8.6625004 3.855
-124.31 8.1092997 4.7353001
-124.27 8.2200003 4.7353001
-123.57 7.888 4.6245999
-123.56 7.888 4.7353001
-124.3 8.3305998 4.6245999
-124.25 8.3305998 4.7353001
-124.22 8.4413004 4.7353001
-124.51 8.8837996 4.7353001
-124.42 8.8837996 4.6752
-124.5 8.9945002 4.7353001
-124.42 8.9945002 4.6750002
-124.31 8.9945002 4.6585002
-124.48 9.1050997 4.7353001
-124.42 9.1050997 4.6796999
-124.31 9.1050997 4.6444998
-123.51 8.7732 3.9607999
-123.5 8.8837996 3.9607999
-123.5 8.8837996 4.0714002
-123.49 8.9945002 3.9607999
-123.5 9.1050997 3.9607999
-123.5 8.9945002 4.0714002
-123.51 9.1050997 4.0714002
-123.75 8.9770002 4.2926998
-123.75 8.9945002 4.2926998
-123.64 8.9945002 4.2217999
-123.76 9.1050997 4.2926998
-123.75 9.0832996 4.2926998
-123.75 9.1050997 4.2894001
-123.64 9.1050997 4.2031002
-123.57 8.9945002 4.1820998
-123.53 8.9945002 4.1528001
-123.61 9.1050997 4.1820998
-123.53 9.1050997 4.1248002
-123.66 9.3263998 4.0714002
-123.64 9.2882004 4.0714002
-123.64 9.3263998 3.983
-123.56 9.2157001 3.9607999
-123.53 9.1773005 3.9607999
-123.64 9.3263998 3.9607999
-123.59 9.2157001 4.0714002
-123.53 9.1548004 4.0714002
-123.64 9.3331003 3.9607999
-123.69 9.4370003 4.0714002
-123.7 9.3263998 4.1820998
-123.75 9.3263998 4.2618999
-123.71 9.4370003 4.1820998
-123.66 9.5476999 4.1820998
-123.75 9.4216995 4.2926998
-123.74 9.4370003 4.2926998
-123.64 9.4761 4.2926998
-123.64 9.5476999 4.2006001
-123.53 9.5232 4.2926998
-123.53 9.5476999 4.2733002
-123.52 9.5476999 4.2926998
-123.87 9.1050997 4.5139999
-123.86 9.1050997 4.4733
-124.22 8.9945002 4.7353001
-124.2 9.1050997 4.7353001
-123.75 8.9945002 4.2936001
-123.86 9.1766005 4.5139999
-124.2 9.1449003 4.7353001
-124.2 9.2157001 4.7308998
-124.2 9.2157001 4.7353001
-123.86 9.2157001 4.5139999
-123.5 9.5476999 4.4032998
-123.85 9.2157001 4.6245999
-123.8 9.4370003 4.7353001
-123.75 9.4556999 4.7353001
-123.64 9.4575996 4.7353001
-123.53 9.4920998 4.7353001
-123.49 9.5476999 4.7353001
-124.42 8.1092997 4.8337998
-124.31 8.1092997 4.8006001
-124.52 8.2200003 4.8459001
-124.42 8.1169996 4.8459001
-124.53 8.2200003 4.8249002
-124.31 8.1773005 4.8459001
-124.42 8.2200003 4.9078999
-124.31 8.2200003 4.8642001
-124.53 8.2566004 4.8459001
-124.42 8.3305998 4.9317999
-124.31 8.3305998 4.8965001
-124.31 8.4413004 4.9089999
-124.29 8.2200003 4.8459001
-123.65 7.9987001 4.9565001
-123.64 7.9960999 4.9565001
-123.56 7.888 4.8459001
-123.57 7.888 4.9565001
-123.65 7.9987001 5.0672002
-123.64 7.9973001 5.0672002
-123.64 7.9987001 5.0770998
-123.63 7.9987001 5.1778002
-123.64 8.0155001 5.1778002
-124.27 8.3305998 4.8459001
-124.25 8.4413004 4.8459001
-123.56 7.888 5.3990998
-123.71 8.1092997 5.2884998
-123.64 8.0432997 5.2884998
-123.67 8.1092997 5.3990998
-123.57 7.9987001 5.6204
-123.72 8.2200003 5.5098
-124.5 8.8837996 4.8459001
-124.48 8.9945002 4.8459001
-124.45 9.1050997 4.8459001
-124.42 8.9945002 4.8835001
-124.31 8.9945002 4.8832998
-124.42 9.1050997 4.8699002
-124.31 9.1050997 4.8835001
-124.42 9.2157001 4.8459001
-124.42 9.2312002 4.8459001
-124.42 9.2157001 4.8491998
-124.31 9.2157001 4.8800001
-124.31 9.3263998 4.8705001
-124.24 9.1050997 4.8459001
-124.23 9.2157001 4.8459001
-124.2 9.2157001 4.7958002
-124.24 9.3263998 4.8459001
-124.2 9.3263998 4.803
-123.77 9.4370003 4.8459001
-123.75 9.4422998 4.8459001
-123.64 9.4558001 4.8459001
-123.64 9.4579 4.9565001
-123.53 9.4951 4.8459001
-123.49 9.5476999 4.8459001
-123.53 9.4969997 4.9565001
-123.5 9.5476999 4.9565001
-123.53 9.4962997 5.0672002
-123.5 9.5476999 5.0672002
-123.49 9.5476999 5.1778002
-123.5 9.6583004 4.2926998
-123.66 10.101 3.9607999
-123.65 10.212 3.9607999
-123.66 10.101 4.0714002
-123.65 10.212 4.0714002
-123.64 10.262 4.0714002
-123.64 10.212 4.1157999
-124.15 9.8795996 4.6245999
-124.09 9.8322001 4.6245999
-124.09 9.8472004 4.7353001
-124.17 9.9902 4.7353001
-124 9.8795996 4.6245999
-123.98 9.9102001 4.6245999
-124.05 9.8795996 4.7353001
-123.98 9.9902 4.7353001
-123.98 9.9902 4.7254
-123.48 9.6583004 4.4032998
-123.47 9.7690001 4.4032998
-123.47 9.6583004 4.5139999
-123.46 9.7690001 4.5139999
-123.46 9.8795996 4.5139999
-123.45 9.8795996 4.6245999
-123.45 9.9902 4.6245999
-123.45 9.9902 4.7353001
-124.11 10.101 4.5139999
-124.09 10.101 4.4900999
-124.09 10.118 4.5139999
-123.98 10.101 4.421
-124.02 10.212 4.5139999
-123.98 10.212 4.4956002
-123.92 10.212 4.5139999
-123.99 10.322 4.5139999
-123.98 10.322 4.5114002
-123.94 10.322 4.5139999
-123.98 10.357 4.5139999
-124.13 10.101 4.6245999
-124.1 10.212 4.6245999
-124.09 10.212 4.5876002
-124.1 10.212 4.7353001
-123.98 10.018 4.7353001
-124.1 10.322 4.6245999
-124.09 10.322 4.5833001
-124.09 10.419 4.6245999
-124.11 10.322 4.7353001
-124.11 10.433 4.7353001
-124.09 10.433 4.6314001
-123.88 10.322 4.6245999
-124.08 10.433 4.6245999
-123.98 10.433 4.5247002
-123.86 10.378 4.6245999
-123.86 10.433 4.5693002
-123.88 10.433 4.7353001
-123.86 10.433 4.7062001
-123.45 10.101 4.7353001
-123.42 10.72 3.9607999
-123.42 10.765 4.0376
-123.42 10.795 4.0714002
-123.43 10.875 4.1820998
-123.42 10.875 4.1324
-123.42 10.938 4.1820998
-123.42 10.951 4.2926998
-124.05 10.543 4.6245999
-123.98 10.543 4.5539999
-123.86 10.543 4.5421
-123.99 10.654 4.6245999
-123.98 10.654 4.6129999
-123.88 10.654 4.6245999
-123.86 10.632 4.6245999
-123.86 10.489 4.7353001
-123.9 10.654 4.7353001
-123.86 10.573 4.7353001
-123.98 10.663 4.6245999
-123.98 10.699 4.7353001
-123.85 10.433 4.6245999
-123.84 10.543 4.6245999
-123.86 10.543 4.7353001
-123.42 11.318 4.4032998
-123.42 11.309 4.4032998
-123.42 11.318 4.3849001
-123.43 11.318 4.5139999
-123.42 11.286 4.5139999
-123.44 11.318 4.6245999
-123.42 11.278 4.6245999
-123.44 11.318 4.7353001
-123.42 11.289 4.7353001
-124.09 9.8795996 4.7660999
-124.09 9.9902 4.7930999
-123.47 9.6583004 4.8459001
-123.47 9.6583004 4.9565001
-123.46 9.7690001 4.9565001
-123.46 9.8795996 4.9565001
-123.48 9.6583004 5.0672002
-123.46 9.7690001 5.0672002
-123.47 9.6583004 5.1778002
-123.46 9.7690001 5.1778002
-123.46 9.8795996 5.0672002
-123.45 9.9902 5.0672002
-123.45 9.8795996 5.1778002
-123.45 9.9902 5.1778002
-124.09 10.101 4.7715998
-124.09 10.322 4.7891002
-124.09 10.433 4.8182998
-123.98 10.433 4.8347998
-123.45 10.101 4.8459001
-123.44 10.212 4.8459001
-123.44 10.212 4.9565001
-123.44 10.322 4.9565001
-123.45 10.101 5.1778002
-123.44 10.322 5.0672002
-123.43 10.433 5.0672002
-123.43 10.433 5.1778002
-123.47 9.6583004 5.2884998
-123.47 9.6583004 5.3990998
-123.46 9.7690001 5.3990998
-123.47 9.6583004 5.5098
-123.46 9.7690001 5.5098
-123.47 9.6583004 5.6204
-123.46 9.7690001 5.6204
-123.45 9.8795996 5.5098
-123.45 9.9902 5.5098
-123.45 9.8795996 5.6204
-123.45 9.9902 5.6204
-123.45 10.101 5.2884998
-123.43 10.433 5.2884998
-123.43 10.433 5.3990998
-123.44 10.101 5.6204
-123.44 10.322 5.5098
-123.44 10.322 5.6204
-124.07 10.543 4.8459001
-123.98 10.47 4.8459001
-123.95 10.543 4.8459001
-123.86 10.543 4.7407999
-123.98 10.654 4.8459001
-123.98 10.543 4.8613
-123.98 10.654 4.8460999
-123.98 10.654 4.8459001
-123.43 10.543 5.1778002
-123.44 11.318 4.8459001
-123.42 11.286 4.8459001
-123.44 11.318 4.9565001
-123.42 11.277 4.9565001
-123.43 11.318 5.0672002
-123.43 10.543 5.2884998
-123.43 10.654 5.2884998
-123.42 10.717 5.2884998
-123.43 10.543 5.5098
-123.42 10.654 5.5098
-123.43 10.543 5.6204
-123.42 10.664 5.5098
-123.42 10.765 2.8543
-123.42 10.765 2.9649999
-123.41 10.875 2.9649999
-123.42 10.765 3.0755999
-123.41 10.875 3.0755999
-123.42 10.765 3.1863
-123.41 10.875 3.1863
-123.42 10.765 3.2969
-123.41 10.875 3.2969
-123.42 10.765 3.4075999
-123.41 10.875 3.4075999
-123.41 10.986 3.1863
-123.4 10.986 3.2969
-123.4 11.097 3.2969
-123.4 10.986 3.4075999
-123.4 11.097 3.4075999
-123.39 11.207 3.4075999
-123.42 10.765 3.5181999
-123.41 10.875 3.5181999
-123.42 10.765 3.6287999
-123.41 10.875 3.6287999
-123.42 10.765 3.7395
-123.41 10.875 3.7395
-123.42 10.765 3.8501
-123.41 10.875 3.8501
-123.4 10.986 3.5181999
-123.4 11.097 3.5181999
-123.4 10.986 3.6287999
-123.4 11.097 3.6287999
-123.39 11.207 3.5181999
-123.39 11.207 3.6287999
-123.39 11.318 3.6287999
-123.4 10.986 3.7395
-123.4 11.097 3.7395
-123.41 10.986 3.8501
-123.4 11.097 3.8501
-123.39 11.207 3.7395
-123.39 11.318 3.7395
-123.39 11.207 3.8501
-123.39 11.318 3.8501
-123.42 10.765 3.9607999
-123.41 10.875 3.9607999
-123.42 10.875 4.0714002
-123.41 10.986 3.9607999
-123.4 11.097 3.9607999
-123.41 10.986 4.0714002
-123.4 11.097 4.0714002
-123.4 11.207 3.9607999
-123.39 11.318 3.9607999
-123.4 11.207 4.0714002
-123.39 11.318 4.0714002
-123.42 10.986 4.1820998
-123.41 11.097 4.1820998
-123.42 10.986 4.2926998
-123.41 11.097 4.2926998
-123.4 11.207 4.1820998
-123.4 11.318 4.1820998
-123.4 11.207 4.2926998
-123.41 11.318 4.2926998
-123.41 10.986 4.4032998
-123.41 11.097 4.4032998
-123.4 11.097 4.5139999
-123.41 11.207 4.4032998
-123.41 11.207 4.5139999
-123.4 11.097 4.6245999
-123.41 11.207 4.6245999
-123.4 11.207 4.7353001
-123.41 10.875 5.2884998
-123.42 10.765 5.3990998
-123.41 10.875 5.3990998
-123.42 10.765 5.5098
-123.4 11.097 5.2884998
-123.4 11.097 5.3990998
-123.4 10.986 5.5098
-123.4 11.097 5.5098
-123.41 10.986 5.6204
-123.4 11.097 5.6204
-125.41 11.429 3.6382
-124.86 11.429 3.4231999
-124.75 11.429 3.4465001
-124.75 11.539 3.4747
-124.64 11.429 3.4902
-124.58 11.429 3.5181999
-124.53 11.386 3.5181999
-124.67 11.539 3.5181999
-124.64 11.492 3.5181999
-124.53 11.429 3.5543001
-124.64 11.539 3.5481
-124.58 11.539 3.6287999
-124.53 11.482 3.6287999
-123.42 11.429 4.2926998
-123.42 11.412 4.2926998
-123.42 11.429 4.2856002
-123.44 11.539 4.2926998
-123.42 11.539 4.2529998
-123.48 11.65 4.2926998
-123.42 11.65 4.2241998
-123.46 11.429 4.4032998
-123.51 11.539 4.4032998
-123.5 11.429 4.5139999
-123.58 11.539 4.5139999
-123.53 11.478 4.5139999
-123.53 11.539 4.4349999
-123.67 11.761 4.5139999
-123.64 11.653 4.5139999
-123.64 11.761 4.4524002
-123.57 11.65 4.4032998
-123.53 11.578 4.4032998
-123.53 11.65 4.3601999
-123.64 11.65 4.5139999
-123.53 11.429 4.6245999
-123.62 11.539 4.6245999
-123.53 11.437 4.6245999
-123.54 11.429 4.7353001
-123.53 11.421 4.7353001
-123.53 11.429 4.6700001
-123.64 11.539 4.7353001
-123.67 11.65 4.6245999
-123.64 11.571 4.6245999
-123.64 11.65 4.5166001
-123.68 11.761 4.6245999
-123.69 11.65 4.7353001
-123.64 11.548 4.7353001
-123.69 11.761 4.7353001
-123.68 11.871 4.6245999
-123.68 11.871 4.7353001
-123.64 11.539 4.8459001
-123.64 11.537 4.8459001
-123.64 11.539 4.8245001
-123.65 11.539 4.9565001
-123.64 11.53 4.9565001
-123.55 11.429 4.8459001
-123.53 11.415 4.8459001
-123.55 11.429 4.9565001
-123.53 11.415 4.9565001
-123.69 11.65 4.8459001
-123.69 11.761 4.8459001
-123.69 11.761 4.9565001
-123.65 11.539 5.0672002
-123.64 11.533 5.0672002
-123.64 11.539 5.1329999
-123.54 11.429 5.0672002
-123.53 11.42 5.0672002
-123.53 11.429 5.1778002
-123.53 11.428 5.1778002
-123.64 11.539 5.1778002
-123.64 11.547 5.1778002
-123.69 11.871 4.8459001
-123.68 11.982 4.8459001
-123.69 11.871 4.9565001
-123.7 11.982 4.9565001
-123.68 12.092 4.9565001
-123.69 11.871 5.0672002
-123.69 11.982 5.0672002
-123.68 11.982 5.1778002
-123.68 12.092 5.0672002
-123.66 12.203 5.0672002
-123.68 12.092 5.1778002
-123.68 12.203 5.1778002
-123.53 11.429 5.1845002
-123.52 11.429 5.2884998
-123.62 11.539 5.2884998
-123.53 11.442 5.2884998
-123.59 11.539 5.3990998
-123.53 11.465 5.3990998
-123.64 11.577 5.2884998
-123.65 11.65 5.3990998
-123.64 11.625 5.3990998
-123.57 11.539 5.5098
-123.53 11.492 5.5098
-123.54 11.539 5.6204
-123.53 11.522 5.6204
-123.67 12.092 5.2884998
-123.66 12.203 5.2884998
-123.66 12.092 5.3990998
-123.64 12.152 5.3990998
-123.64 12.203 5.3313999
-123.62 12.203 5.3990998
-123.65 12.314 5.1778002
-123.64 12.346 5.1778002
-123.64 12.263 5.2884998
-123.64 12.314 5.2375998
-123.62 12.314 5.2884998
-123.38 11.429 3.7395
-123.38 11.429 3.8501
-123.38 11.429 3.9607999
-123.38 11.539 3.9607999
-123.39 11.429 4.0714002
