ply
format ascii 1.0
comment PCL generated
element vertex 1032
property float x
property float y
property float z
element face 0
element camera 1
property float view_px
property float view_py
property float view_pz
property float x_axisx
property float x_axisy
property float x_axisz
property float y_axisx
property float y_axisy
property float y_axisz
property float z_axisx
property float z_axisy
property float z_axisz
property float focal
property float scalex
property float scaley
property float centerx
property float centery
property int viewportx
property int viewporty
property float k1
property float k2
end_header
-118.64484 7.6641326 -3.8306124
-119.45917 7.6649995 -4.1652613
-118.598 10.0838 -4.1714201
-118.598 10.0838 -4.1714201
-118.681 5.2635198 -4.1754694
-118.62817 9.2329893 -3.1415861
-118.631 9.9700899 -2.1083901
-121.16792 6.0078831 -2.1692476
-119.55466 4.5449948 -2.1428735
-123.64158 5.9416556 0.69088745
-118.712 5.2628999 -2.12451
-119.6804 4.5013542 -4.1662493
-118.705 3.83358 -4.1766701
-118.705 3.83358 -4.1766701
-152.907 4.7513099 7.1504898
-152.907 4.7513099 7.1504898
-152.907 4.7513099 7.1504898
-151.83 4.63059 -3.8447998
-153.162 4.6802201 -3.8314397
-153.162 4.6802201 -3.8314397
-152.48218 4.6561933 -3.6604249
-148.28407 4.5029044 -3.2805264
-151.688 4.6332898 -2.7581499
-148.78058 4.5397925 -0.76778388
-143.95366 4.4141212 6.5599728
-148.36165 4.5693803 5.3853722
-143.836 4.4011025 5.3828955
-118.66616 7.6260223 -2.4592826
-118.598 10.0838 -4.1714201
-121.15084 6.0264664 -4.1500111
-124.102 5.1600199 -4.1213999
-121.20066 4.9893851 -2.1730268
-123.68809 4.9540544 0.68932492
-126.64078 3.7551525 -4.097435
-123.90875 7.6179581 -4.1208401
-131.07373 4.2068639 -3.2144578
-128.45201 4.0786834 -4.07901
-130.39847 3.8638382 -4.0597706
-129.72501 3.8071401 -4.0665598
-123.71008 4.5265245 2.6294184
-123.57325 7.4355755 2.6291208
-123.681 5.1679902 3.59917
-143.65724 4.3638091 1.2079595
-148.59975 4.5562706 2.3946111
-143.42575 4.3440475 -0.31290829
-147.95193 4.9580879 -1.9577031
-150.04616 5.0938478 -3.2950485
-150.57494 5.0531883 -1.0026984
-131.31534 4.0975337 -4.050374
-152.32899 4.9026198 7.1500807
-123.55825 12.433708 6.8076639
-123.41092 12.471974 6.1754971
-123.339 12.4912 7.1293707
-123.36141 11.993813 6.1805735
-152.91817 4.6749897 -3.3074081
-153.138 4.6869798 -2.7857497
-153.138 4.6869798 -2.7857497
-118.737 3.83498 -2.12941
-118.65549 7.6450777 -3.1449473
-118.70058 5.0250549 -3.1504982
-118.70876 4.5487447 -3.1515148
-118.69825 4.548615 -3.8345516
-152.18965 4.6725726 0.054660797
-152.82634 4.687552 -1.1298246
-153.062 4.7080798 0.47225904
-152.3544 4.8923116 -2.122407
-151.299 5.1680498 -3.84957
-152.81841 4.7712722 -1.0461705
-150.855 4.6491399 3.6232901
-151.37215 4.6577053 2.1710262
-151.01173 4.6679168 5.3868051
-121.0985 7.6476798 -4.1488943
-121.3364 4.946228 -4.1492491
-121.28139 4.0398412 -4.1507158
-133.64014 9.7945023 6.4417782
-134.993 9.4405499 7.1376905
-132.411 10.1166 7.13585
-132.411 10.1166 7.13585
-137.46507 8.7928057 5.3735652
-135.5545 4.0565701 4.1998391
-135.76649 4.0686102 5.3786278
-136.6205 4.1219935 5.3789959
-129.8918 3.7853935 -4.0649157
-129.98401 4.0461249 0.64222759
-131.81168 4.1320453 0.61801922
-129.22368 4.066998 -1.3340974
-131.13675 7.3318725 3.6036475
-123.70825 4.5260229 0.68867499
-123.746 3.7354 1.33831
-123.72842 4.097991 0.688025
-151.683 5.0689301 0.258165
-152.2552 4.9187555 -0.82502079
-152.05507 4.9723392 2.1375449
-152.40942 4.8791294 1.0869746
-123.40975 10.981804 6.8143177
-146.513 4.7320399 3.6194401
-147.35017 4.7822042 3.6201174
-147.44966 4.7899108 3.121465
-138.07091 4.1483026 0.14196718
-140.70917 4.485456 2.7748802
-146.03992 4.8269916 -0.48643327
-142.39406 4.6447206 -0.056275964
-143.814 4.7836299 -2.6068499
-123.339 12.4912 7.1293707
-123.336 12.4907 3.5920701
-123.779 12.3761 7.1296806
-123.70258 12.395675 6.1523838
-133.5164 9.8263569 5.0517917
-132.7838 10.018252 5.3218169
-131.6375 3.776675 0.61468005
-131.59283 3.7705219 2.6097801
-130.90016 3.7563884 0.62102997
-132.72499 7.3158188 3.6050441
-146.60651 4.5665364 -3.8970697
-142.53807 4.2861972 -3.7008631
-142.65851 4.3154964 -3.9367836
-147.55116 4.9657078 -2.8808086
-131.13158 7.2345557 7.1402283
-128.21991 8.7204924 7.1369591
-128.29175 7.2634377 7.1393757
-123.65784 7.3106103 7.1379871
-127.135 3.52722 7.1451998
-123.752 3.73399 7.1438999
-123.482 9.4548702 7.1344099
-130.99782 9.9693346 7.1356926
-132.44299 9.4437199 7.1369705
-135.69472 8.5399609 7.1393747
-139.769 4.3170099 7.14748
-134.91707 7.0586147 7.141592
-152.90291 4.7482681 -3.3073666
-152.42683 4.6593461 -2.9496448
-151.90991 4.6968632 -3.8439348
-151.85492 4.844007 -3.8443348
-135.851 3.8764 7.14709
-135.9785 4.0806499 6.5574169
-151.40642 4.7209549 7.1501141
-151.22374 4.9390082 7.1497059
-150.91824 4.753655 7.1499224
-123.74527 3.7617347 1.9188954
-118.68283 6.0571656 -3.148309
-118.71692 4.0724349 -3.1525314
-119.70707 3.8436174 -3.1999514
-118.737 3.83498 -2.12941
-121.22933 4.084825 -2.1763732
-123.755 3.66746 7.1440105
-123.761 3.5439999 7.1442099
-123.757 3.6224349 6.8188286
-123.76 3.57057 7.1441698
-132.71899 3.7902701 7.1463499
-151.713 5.0637298 7.1496401
-144.18666 4.5347509 7.1483736
-142.11806 7.0799642 7.1435986
-141.10725 4.4899945 7.1475735
-140.45308 4.321878 7.147665
-143.99475 4.4355083 7.1484814
-152.10783 4.6773524 1.1206826
-152.27899 4.6675973 -1.0759835
-153.062 4.7080798 0.47225904
-151.78624 4.6967096 5.3871951
-151.69574 4.701973 6.5625381
-152.05141 4.8025284 7.1501646
-152.59734 4.8321538 6.5626583
-149.07851 4.8936543 3.6215174
-123.4035 11.062861 3.8656166
-123.40075 11.096859 2.6286018
-123.336 12.4907 3.5920701
-123.35917 12.009857 4.4117332
-123.4045 11.047973 4.4099503
-123.47 9.64991 3.59483
-123.44983 10.086087 4.4081669
-121.04617 9.2688932 -4.1477776
-123.84775 5.9825578 -4.1231041
-123.673 5.1682 -4.1256695
-123.02039 4.4885678 -4.1328793
-121.6552 4.4069638 -4.1466074
-123.98351 7.5908704 -3.1692922
-123.9865 7.5733104 -2.535394
-127.7512 4.0518317 -3.2112238
-128.4794 4.0689006 -2.6185815
-141.9408 7.1710601 3.6131966
-134.25012 9.6343555 5.264564
-127.34347 3.7083035 -4.0904627
-127.53713 3.8044178 -4.0884266
-128.692 3.63604 -4.0770597
-131.10492 3.8337643 -4.052743
-141.69551 4.3327298 -3.9463899
-123.49591 9.0359993 0.6958375
-121.11674 7.5926003 -2.1633625
-121.06558 9.1773176 -2.1574774
-130.724 3.7630999 -4.0566196
-135.314 3.8710401 3.33131
-134.53188 3.856077 0.68128604
-135.314 3.8710401 3.33131
-135.20491 4.0366077 2.3629715
-135.21825 4.0394545 0.39509833
-143.75407 4.3750043 2.2432079
-121.2894 3.858284 -3.8664377
-122.9574 4.0588279 -4.1339455
-125.59467 3.9378865 -4.1077099
-130.409 3.7355101 3.6063499
-130.78741 3.7453499 3.8341901
-151.72301 5.0585899 0.68667197
-151.55621 5.1014533 -1.4142344
-151.64587 5.0780067 -1.4160244
-147.95644 4.8599977 1.4908572
-147.56334 4.8286233 1.9487079
-141.3342 4.244832 -3.2386296
-136.7845 4.0989232 -3.9957101
-131.00291 10.064751 3.6009958
-130.98199 10.489292 3.8046734
-132.425 10.1115 3.60219
-128.16225 9.9107046 3.598666
-128.13576 10.444303 3.5981474
-125.26859 10.823853 3.5952995
-128.09633 11.244658 3.7429199
-123.68633 12.397808 0.69746417
-123.77841 11.950962 0.69621664
-128.10925 10.977901 3.5976293
-123.339 12.4912 7.1293707
-123.54934 12.434475 2.6277976
-123.51258 8.7843409 6.1759777
-123.58224 7.3201771 6.816577
-123.58075 7.3377705 6.1738005
-123.45509 10.004863 6.1777668
-123.475 9.56038 5.2197199
-123.40675 11.016873 5.544023
-123.55675 12.433825 6.1639404
-137.8466 4.3573279 -3.984832
-137.94121 4.4865861 -3.9837539
-134.44586 4.2107391 -4.0189705
-138.036 4.546392 -3.7362669
-136.67273 4.0698643 -3.4661863
-132.737 4.3078399 -4.0359497
-144.83084 4.8500576 -3.2739418
-143.24001 4.79459 -3.9304798
-146.29401 4.73629 -3.9000199
-147.5545 4.9684591 -3.8871891
-139.64819 6.7356138 7.1434641
-133.56212 9.7413692 7.1367931
-132.71211 9.742425 7.1365528
-151.66499 5.0720201 -3.846
-152.4545 4.6577697 -3.3050349
-134.20625 3.8328946 6.4484921
-134.11067 3.8340199 7.1466694
-150.394 4.6578999 7.14993
-123.76208 3.5145416 6.818882
-123.764 3.48175 7.14431
-123.71124 4.5268435 3.8659258
-118.71925 4.5488744 -2.468478
-123.74841 3.6943681 1.9188328
-123.74744 3.728019 2.5951223
-123.756 3.44912 -2.2267399
-123.833 3.45187 0.6863783
-123.97666 3.449403 -1.2589417
-123.75467 3.4987218 -1.2553074
-123.40549 11.033084 4.9542832
-119.48657 7.60853 -2.1320875
-118.631 9.9700899 -2.1083901
-118.631 9.9700899 -2.1083901
-118.712 5.2628999 -2.12451
-121.215 4.5371046 -2.1747
-123.7418 3.814954 0.81781596
-121.38406 3.8598874 -2.5493982
-123.75408 3.4671752 -3.1766298
-121.6792 3.8622921 -3.2937739
-123.482 9.4548702 7.1344099
-133.08853 3.8161466 0.78472608
-133.36653 3.8188503 2.7870729
-128.45276 3.6162615 0.64070082
-133.77859 3.8342299 1.1438681
-126.77509 3.5093358 2.6212275
-126.11076 3.4698193 0.66562074
-126.88126 3.5179975 0.65697241
-137.631 4.1833601 7.14709
-139.31032 4.2328238 5.3804183
-140.77783 4.4700789 3.4269369
-135.851 3.8764 7.14709
-136.98299 4.1833334 7.1469078
-128.451 3.7893 7.1451406
-150.43007 4.7863545 7.1497307
-149.78508 4.7047811 7.1496811
-144.748 4.5844531 7.1484509
-143.95924 4.4652648 7.1484222
-143.92375 4.4950213 7.1483641
-151.95917 4.6865225 3.1234806
-151.228 4.6420398 0.76770699
-152.69482 4.7061691 2.0731368
-152.989 4.7284899 3.6250701
-151.73166 4.6476421 -1.0221422
-152.36833 4.6626225 -2.2066278
-151.8694 5.0196285 -1.1077685
-151.88707 5.0154252 0.039938688
-152.34674 4.8951416 0.11130333
-148.3156 4.9001546 0.66956133
-150.32159 5.0070481 0.20137298
-150.60533 4.9883008 1.3235004
-145.98979 5.5371499 3.6182334
-134.241 9.6361599 3.6042099
-133.75681 9.7630625 4.0864673
-132.90845 9.9849415 3.6222413
-133.513 9.8266697 3.6034
-151.99225 4.9904876 6.5621853
-151.78192 5.0450773 5.386704
-152.08759 4.9651475 5.386961
-152.56075 4.725503 5.3875852
-152.29466 4.910954 5.3871512
-149.2205 4.866631 3.6216676
-148.85742 5.8106093 5.3840251
-149.25807 4.8826547 7.1492395
-148.03474 4.762342 7.1490898
-122.73783 7.6303596 -4.1325283
-119.41965 10.026158 -3.1435626
-123.33 12.49 -2.1905999
-128.21739 4.0900574 -3.7897379
-129.62926 3.6937723 -3.2019274
-129.57677 3.6899073 -2.6253192
-130.33575 3.7379506 -3.2054956
-123.576 7.401485 3.865773
-134.53366 4.3685017 -3.2248399
-136.67906 4.0739808 -2.9365566
-134.9362 4.1017494 -4.0141802
-143.03342 7.3347526 4.2022147
-147.32582 4.9781976 -3.6881816
-143.16125 7.3017077 5.3787947
-143.28908 7.2686629 6.5553751
-143.71832 4.3880839 4.2058187
-143.67841 4.3802605 3.3424656
-145.871 4.7021198 3.6189001
-142.8765 4.5785971 3.05316
-138.0834 4.4822769 -1.4092526
-138.226 4.5270982 -2.7484729
-134.993 9.4405499 7.1376905
-135.87981 8.6946259 3.6065102
-133.381 7.3096313 3.6056206
-135.65779 7.1422668 3.6077566
-134.38475 4.2507644 0.66237408
-133.05301 7.3127251 3.6053326
-133.15114 9.9216089 4.1443338
-132.90813 9.9850426 3.6807811
-126.94425 3.6395073 -4.0945225
-126.98743 3.526659 -1.3072824
-128.15634 3.9602051 0.6664359
-123.99258 7.5378432 -1.2491398
-124.07925 5.9346032 0.68695003
-124.00175 7.4844699 0.68947011
-123.92426 9.0343361 0.69199008
-124.108 5.1598802 -2.2281899
-126.72373 3.8907311 0.76004869
-124.06451 5.9702568 -3.172961
-127.11841 3.53739 -3.7921765
-126.64233 3.5340016 -4.0976486
-127.6768 3.6878834 -4.0871487
-139.44954 4.3581629 -3.9688108
-123.68875 9.2563515 -4.1213799
-123.856 10.0744 -4.1188793
-123.856 10.0744 -4.1188793
-123.56875 7.4888272 0.69336241
-130.88033 3.7719965 -3.2082469
-131.27034 3.7969501 -3.7707865
-130.22481 3.7707131 -4.0616016
-143.19426 4.3242855 -1.833776
-133.1666 3.8071012 5.3151855
-133.61778 3.9331684 6.4481659
-145.66499 4.74825 1.66273
-145.871 4.7021198 3.6189001
-145.04384 4.6717391 3.33144
-143.71625 4.3776321 2.7928367
-146.21333 4.7190156 3.58618
-123.748 3.58448 -4.1265297
-132.66 4.99651 7.1443405
-128.36359 5.8063827 7.1417923
-128.62746 4.8526359 7.1434364
-125.45193 7.2923188 7.1385221
-128.21309 8.8828993 3.599664
-128.28825 7.3608875 3.6011426
-124.96425 3.4482 0.67649496
-125.47175 3.4465535 0.67212838
-151.40291 5.1409307 -3.3004749
-151.58466 5.0938897 -1.7497883
-151.67 5.0711999 -2.7564499
-149.62059 4.7155533 -3.8667948
-150.73775 4.7797799 -3.8555648
-148.82567 4.8802705 2.2020297
-132.424 10.1118 3.7778101
-132.448 9.6384497 3.6026499
-132.425 10.1115 3.60219
-130.97717 10.491267 5.5717926
-128.09749 11.244766 4.9143529
-128.0965 11.245399 5.8017178
-128.0955 11.246033 6.6890831
-125.21583 11.999532 6.0316429
-125.28117 10.726035 7.132823
-123.58308 11.93714 7.1303501
-123.77842 10.924847 7.1320705
-123.35409 12.043556 0.70012504
-123.40366 12.471843 0.70008087
-123.82124 11.094285 0.69503003
-123.40825 10.999338 6.1791697
-128.09767 11.244492 4.32512
-123.741 12.3817 -4.1176901
-123.741 12.3817 -4.1176901
-123.328 12.4897 -4.1217098
-123.55359 12.042216 -4.1199083
-133.67888 3.8373401 -1.2284839
-134.50301 3.8629601 -2.43132
-132.758 3.8901999 -4.03617
-132.11592 3.8614509 -4.042613
-147.43851 4.9719524 -3.2844946
-145.88617 4.8245392 -3.9040058
-143.24001 4.79459 -3.9304798
-139.88339 6.8106298 3.6117401
-133.57277 9.5170755 7.137166
-151.99083 4.6405501 -3.3026617
-150.394 4.6578999 7.14993
-123.756 3.6292748 6.1683073
-123.757 3.6086082 6.1683121
-123.755 3.6499417 6.1683025
-123.75791 3.5896256 6.1682892
-123.76041 3.5368783 6.168148
-123.76125 3.5178752 6.1681252
-123.76208 3.4988718 6.1681023
-123.83858 3.4904442 6.1620073
-123.764 3.48175 7.14431
-123.741 3.88556 3.60041
-123.50733 8.8656149 4.4059558
-123.578 7.3716245 4.9408627
-123.577 7.3865547 4.4033179
-123.684 5.1678901 7.1415205
-123.64667 5.907495 4.4006791
-123.71175 4.5269799 4.3981977
-123.73191 4.0996566 4.3974228
-123.71224 4.5271163 4.930469
-123.74844 3.7067921 2.5951424
-123.75675 3.536001 2.62958
-123.75834 3.4654515 0.68707591
-123.7454 3.7160647 -0.023237348
-123.757 3.492135 0.68713754
-124.223 3.4879401 7.1444302
-124.96775 3.5393951 7.1445599
-124.74841 3.6613557 7.1442986
-124.73458 3.5031126 6.0877266
-125.212 11.999858 4.2633667
-123.337 12.4909 5.23318
-123.328 12.4897 -4.1217098
-123.74821 3.6765342 0.817568
-123.7396 3.8609679 0.73107201
-123.75567 3.5188181 0.68719918
-123.75475 3.5367575 0.68723005
-127.65176 3.5661757 0.64832407
-134.22719 3.8427365 2.6947393
-135.353 3.8714399 3.6105299
-135.08427 3.8599513 5.2698855
-134.33028 3.8421314 4.0905356
-125.817 3.4484501 3.6026199
-135.13966 3.8658733 3.4862669
-124.213 3.45364 3.6012199
-129.28426 3.6682549 0.6341024
-129.10675 3.6551082 2.6148474
-132.73199 3.7993801 3.60831
-139.58006 5.4885612 7.1454954
-138.73761 4.716495 7.1465263
-138.83275 4.1989942 3.1910622
-139.77068 4.4893093 3.6137934
-138.18166 4.2279034 7.1471748
-134.62128 4.1564679 7.1462822
-137.1208 4.419414 7.1465578
-137.631 4.1833601 7.14709
-130.15266 3.8765059 7.1454763
-133.76201 3.8353901 7.1465664
-146.40767 4.6736012 7.1487732
-145.93108 5.5109677 7.1472616
-146.43201 4.7335601 7.1486807
-143.64967 4.5450077 7.1482038
-137.7032 4.4022818 0.77529204
-136.31799 4.10534 3.16908
-151.87675 4.6914463 4.2118516
-152.83142 4.7690959 2.0664406
-152.03349 4.6819372 2.1220815
-133.513 9.8266697 3.6034
-151.93475 5.0051122 5.3868327
-152.81732 4.7741108 5.3876538
-149.14951 4.8801427 3.6215925
-151.87724 5.0197377 4.2114811
-150.94884 4.9780812 3.6230676
-151.22432 5.0385323 0.57376313
-128.92274 3.6495941 -3.1983593
-132.97108 9.9138651 3.6028483
-148.64079 4.9490943 -0.51518011
-132.78734 10.016656 3.6611335
-128.95216 3.6437683 4.2326322
-128.899 3.6398449 4.8226757
-129.92517 3.7049448 3.9042091
-133.589 3.8229401 3.60904
-133.4566 3.8179913 4.1360822
-126.60575 3.6170292 -4.0979309
-124.93042 3.4463034 -1.2737882
-124.45675 3.449847 0.68086153
-127.28275 3.6619856 -4.091114
-128.45799 3.9567366 -4.0790739
-142.46021 4.6294026 -3.9384439
-123.98051 7.6084304 -3.8031909
-123.442 10.0752 -4.1230202
-121.02332 10.061196 -3.8151062
-121.02999 10.024588 -3.1508777
-142.49707 4.291214 -2.8090165
-146.384 4.7344999 3.3222599
-144.97516 4.6871157 2.6793833
-123.754 3.44717 -4.1265993
-124.181 3.5755401 -4.1222095
-125.14066 3.4705818 -4.1127186
-123.96951 3.4675026 -4.1244249
-125.576 3.4412999 -4.1083994
-123.734 3.88135 -4.1263695
-131.56874 3.7672603 3.6620901
-129.00484 3.6475818 3.7307024
-132.32991 3.8361034 2.6084006
-132.3405 3.8357799 4.3664689
-132.73199 3.7990201 3.74717
-132.3255 3.7835724 5.4781642
-132.70799 4.00034 7.1459999
-126.88009 3.7539389 7.1447525
-127.51125 3.8982468 7.1446896
-126.46025 3.5736349 7.144928
-126.375 3.7648699 7.1445904
-124.129 3.4509099 0.68371159
-151.401 5.1415401 -2.7510798
-150.36284 5.060936 -3.8590291
-149.56557 4.8626962 -3.8671949
-148.19611 4.8554149 2.044034
-149.452 4.903192 2.4226952
-151.058 4.9831638 2.2444458
-128.16917 9.7485743 7.135253
-128.1395 10.347685 7.1342573
-128.10982 10.946795 7.1332626
-123.67941 9.9511042 7.133646
-123.73817 8.7394209 7.1356573
-123.925 9.45432 7.1345301
-123.779 12.3761 7.1296806
-123.48408 10.963398 7.1319265
-123.545 12.434825 0.69877249
-123.86407 10.237609 0.69384342
-123.39625 11.149967 0.69890505
-123.72958 11.237117 -4.1189651
-123.741 12.3817 -4.1176901
-123.53516 12.435641 -3.7988775
-123.59175 11.25525 -4.1203251
-131.68217 3.7828283 -1.38042
-131.263 3.7959099 -3.21018
-131.64568 3.8198233 -3.2121131
-133.45909 3.9686611 -4.0290794
-123.442 10.0752 -4.1230202
-132.737 4.3078399 -4.0359497
-131.82401 3.83184 -4.0455599
-133.28233 9.6669569 7.136837
-152.41191 4.876615 -3.6607831
-151.66499 5.0720201 -3.846
-152.40558 4.8785949 -2.9490364
-151.83 4.63059 -3.8447998
-146.21379 4.719008 3.6191866
-146.25734 4.7228637 3.61922
-123.75992 3.562299 6.8188725
-123.75875 3.5723276 6.1682377
-123.761 3.49699 5.1918702
-123.74483 3.8102458 3.8659561
-123.74616 3.8104088 4.9278388
-123.95718 7.3075299 7.1380739
-125.80846 4.4844127 7.1432428
-123.57925 7.3553634 5.5310235
-123.76041 3.5212085 5.5173683
-123.75934 3.4855483 2.6295826
-123.98533 3.4533768 2.6290317
-123.74833 3.7138069 2.8464966
-123.99075 3.4925923 6.1498404
-125.93941 3.5295982 7.1448526
-125.42246 3.6156213 7.1445637
-125.70792 3.5109558 6.7632103
-127.135 3.52722 7.1451998
-123.83901 3.5144415 7.1442795
-123.9835 3.6860943 7.1440439
-124.213 3.68449 7.1441107
-124.22 3.5566101 7.1443205
-124.45188 3.7178211 7.1441231
-123.772 12.3771 5.1635299
-128.097 11.244575 4.0340199
-130.11575 3.7202482 0.62750411
-134.56465 3.8498399 3.5788434
-124.99809 3.4500968 2.6267784
-125.16559 3.465625 3.6020374
-124.62992 3.4879715 3.6015508
-126.79691 3.5323026 5.9122734
-124.77016 3.5174534 4.3162718
-130.409 3.7355101 3.6063499
-136.27034 4.1387835 7.1467781
-135.3302 4.0899 7.1465912
-134.16293 4.4720879 7.1456327
-136.97493 4.2620244 7.1467762
-137.145 4.1833401 7.1469536
-130.263 3.72277 7.1457605
-130.79468 3.88185 7.145649
-131.63509 3.7696426 7.1460733
-127.95276 3.6078749 7.1452961
-129.70799 3.8714974 7.1453581
-130.02913 3.7507012 7.145647
-129.08339 4.4021978 7.1443062
-131.16612 4.1218796 7.145359
-127.43747 3.6592348 7.1450634
-127.82939 3.6983237 7.1451101
-133.06567 3.8217201 7.1463928
-131.5025 3.7581558 6.6110277
-128.739 3.627965 6.6809196
-128.819 3.6339049 5.7517977
-146.38611 4.7297778 3.6193266
-147.46541 4.6086516 7.1491814
-136.31799 4.10534 3.16908
-152.44324 4.8707175 2.1019928
-152.47708 4.8623056 3.1170111
-134.53058 3.9983978 -1.4700015
-152.556 4.8425322 5.3874025
-151.99899 4.98771 3.62397
-150.64101 5.0031199 0.86113399
-151.23767 5.0350857 0.71659875
-151.58501 5.0570221 0.51560915
-123.89767 4.9535117 -4.1236458
-123.77467 4.5303516 -4.1252985
-123.918 4.5323148 -4.123867
-128.07542 3.5966132 -3.1947401
-127.08725 3.5348301 -3.1910698
-127.05609 3.5322702 -2.5899632
-129.68175 3.6976373 -3.7785356
-132.61609 9.8511248 3.6025982
-132.54546 10.079986 3.680378
-136.464 4.1140099 3.61127
-135.353 3.8714399 3.6105299
-131.54851 3.764699 4.4709172
-131.56175 3.7665203 3.88113
-132.82721 3.8018379 3.6701066
-126.6431 3.7080724 -4.0974617
-128.455 4.0177097 -4.0790424
-128.71439 3.8643041 -4.076602
-140.7325 4.3499632 -3.9559968
-138.131 4.5367451 -3.2423699
-123.76825 7.6194549 -4.122242
-123.62775 7.6209512 -4.1236439
-123.9025 9.211483 -3.1656239
-141.72833 4.7049885 -3.2598999
-146.53745 4.7704577 2.3112326
-146.38432 4.7298088 3.4872999
-146.17033 4.7198353 3.4871199
-124.67566 3.5153282 -4.117321
-123.81592 3.662365 -4.1257639
-123.96225 3.6169817 -4.1243505
-126.17733 3.5787485 -4.1022511
-125.576 3.4412999 -4.1083994
-124.187 3.44578 -4.1222696
-123.97117 3.4467974 -3.808852
-124.11184 3.5102928 -4.122961
-123.484 3.8789799 -4.12887
-123.748 3.5697401 -4.1265402
-131.56525 3.76689 3.77161
-133.15067 4.01261 7.1461029
-132.8559 4.0002632 7.1460409
-128.33113 4.0857124 7.1446123
-126.8328 3.6931846 7.1448364
-123.981 3.45139 0.68504494
-151.55188 5.1022096 -2.4191062
-151.50874 5.1132026 -3.3007748
-151.52658 5.1086478 -2.9361017
-151.61458 5.085474 -3.3010747
-148.6945 4.9170156 -3.8758457
-149.32133 4.8743138 3.2220352
-123.63125 10.944122 7.1319981
-123.54067 12.435174 -1.2302525
-123.80001 11.219197 -3.7992065
-123.39817 12.471742 -3.1565139
-123.328 12.4897 -4.1217098
-132.30617 3.8592465 -1.3896399
-130.65401 3.7569799 -2.35794
-132.37483 3.7969618 0.60833001
-131.50243 3.8000584 -2.3740489
-132.733 4.26092 -2.3961999
-132.29575 3.8604698 -3.2150075
-132.29259 3.8608367 -3.765579
-131.98991 3.8413436 -3.2137225
-132.60158 3.8795965 -3.2162926
-123.45392 11.273384 -4.121685
-123.62992 10.468284 -4.1207409
-132.42657 3.8908608 -4.0394764
-131.40813 3.9171412 -4.0496273
-131.41559 3.8631742 -4.0496063
-131.82401 3.83184 -4.0455599
-152.40874 4.877605 -3.3049099
-151.49091 5.1177573 -3.665448
-123.75958 3.5550289 6.1681862
-123.74359 3.8117878 2.6729286
-123.75409 3.594614 2.62954
-123.75446 3.6255805 4.6769166
-123.75967 3.5111167 4.3963413
-123.759 3.5269499 4.3963728
-123.753 3.6475101 4.4342499
-123.75272 3.6629391 4.677012
-123.74316 3.8607724 4.3969893
-123.7455 3.8103275 4.3968973
-123.75967 3.5242331 4.9267845
-123.83542 3.5042648 4.3902631
-123.743 3.88643 5.1936598
-123.745 3.88749 7.1436405
-123.71416 4.527606 6.8182507
-123.8075 7.3090706 7.1380301
-123.755 3.66746 7.1440105
-125.17255 3.7446144 7.1442833
-123.69317 4.9544225 6.1702213
-123.69158 4.9543033 4.398973
-123.682 5.1679401 5.1995502
-123.75225 3.6949375 5.5179715
-123.75391 3.6726007 6.1683216
-123.75275 3.6972523 6.1683655
-123.74984 3.7596848 6.1684666
-123.74683 3.8104982 5.5183868
-123.755 3.6361148 5.517786
-123.75759 3.5823557 5.5176024
-123.762 3.4551001 3.6008301
-123.74911 3.706609 3.3492258
-123.762 3.4551001 3.6008301
-124.215 3.50369 5.1187501
-123.82983 3.702594 7.1439734
-123.98483 3.6601875 7.1440859
-123.83383 3.6222141 7.1441059
-123.993 3.495755 7.1443529
-124.14291 3.4947407 6.1376743
-123.55524 12.433942 5.5202165
-123.69733 12.396382 4.3838043
-123.553 12.43415 4.3953323
-123.75425 3.5459526 0.68722999
-123.75375 3.5551474 0.68722993
-134.752 3.85514 3.5169601
-134.55167 3.8497066 3.4857702
-125.86349 3.5296166 4.6464252
-126.62375 3.8397999 7.1445351
-134.0488 3.8320141 5.0520363
-127.81467 3.5710351 5.8295393
-128.03185 3.5864048 4.0591259
-127.49 3.55198 4.59162
-127.00083 3.5489066 4.1415386
-134.53799 3.98998 7.1465302
-135.49788 4.0700102 7.1466713
-134.035 4.0496502 7.1462898
-133.68954 4.0247269 7.1462345
-133.29788 4.0208669 7.1461315
-128.17799 3.8085556 7.1450291
-130.263 3.72277 7.1457605
-129.42513 3.7728779 7.1454401
-130.388 3.73365 4.1246099
-131.48381 4.4663491 7.1448822
-132.12057 3.9706066 7.1458769
-126.98108 3.6176717 7.1450024
-132.35249 3.8353598 6.5902262
-131.23799 3.9344394 7.1456861
-150.00041 4.8186951 7.1495562
-138.98473 4.4266839 2.0155907
-133.00533 8.8627548 3.6038542
-133.83745 9.6577406 3.6038399
-133.515 9.6370897 3.60358
-152.51466 4.8529105 4.2121472
-151.698 5.06639 3.6236401
-151.349 5.0435467 0.60199034
-128.44701 3.6189699 -2.3160901
-128.1264 3.7172 -4.0826273
-131.5255 3.7614274 5.5409722
-133.11287 3.8098114 3.6240633
-128.78674 3.679549 -4.076067
-146.256 4.7228866 3.5202
-123.754 3.44717 -4.1265993
-124.79211 3.6862955 -4.1159821
-124.172 3.7418101 -4.1221199
-123.96549 3.5516129 -4.1243849
-123.81992 3.5803101 -4.1258078
-123.82009 3.5720825 -4.1258125
-124.179 3.60057 -4.1222
-124.09267 3.8959701 -4.1227646
-124.10358 3.669425 -4.1228809
-123.93833 4.1111183 -4.1240883
-124.164 3.9105 -4.1220398
-124.09658 3.8128641 -4.1228046
-125.49514 3.6337068 -4.1090088
-125.659 3.5246649 -4.1074848
-126.02533 3.7165067 -4.1036263
-124.42582 3.445976 -3.1798446
-124.90816 3.4450524 -2.5599973
-123.97384 3.4480877 -2.5465181
-123.95058 3.8593776 -4.1242208
-123.80892 3.8098011 -4.1256847
-124.06133 4.5342784 -4.1224356
-132.91534 3.9316065 7.1461658
-132.715 3.8759999 7.1462002
-148.1245 4.9427376 -3.8815172
-123.43842 10.256379 0.697685
-121.03666 9.9879799 -2.4866493
-123.5365 12.435525 -3.1572325
-132.60091 3.8398035 0.60657418
-131.25568 3.7948701 -2.6495731
-133.58821 3.9412677 -3.2050221
-133.03241 3.9065292 -3.2129638
-133.42973 3.9319093 -3.7551472
-133.92174 3.9623728 -3.4566805
-134.02574 3.9683425 -2.9240038
-133.85541 3.9677308 -4.0251188
-133.15233 3.9248435 -4.0321894
-133.28444 3.9264345 -4.0308695
-134.19777 3.9745102 -4.0216904
-134.28612 3.9800465 -4.0208006
-134.20033 3.9761002 -4.0216627
-133.33441 9.7557287 3.6033115
-132.755 3.8148301 -2.398
-123.442 10.0752 -4.1230202
-132.754 3.9670501 -4.03613
-131.76575 3.8623126 -4.0461102
-151.91457 5.0069413 -3.3024533
-123.75073 3.6630247 2.672946
-123.74783 3.7598827 4.3968058
-123.75379 3.6307106 4.1463132
-123.759 3.5487599 5.1921101
-123.75433 3.6404209 5.1082721
-123.754 3.6385612 4.8554921
-123.74817 3.8106916 6.8186932
-125.73624 3.781353 7.1443825
-125.17355 3.7263145 7.1443138
-124.93266 3.7295835 7.1442404
-123.64892 5.8912005 6.1716232
-123.71283 4.5272689 5.5209346
-123.75159 3.721904 6.1684084
-123.755 3.6259799 5.1924601
-123.754 3.65309 5.1925902
-123.757 3.55264 3.6007299
-123.751 3.67117 3.60062
-123.748 3.7348499 3.6005599
-123.9874 3.5023584 4.8962536
-123.9865 3.6286125 7.1441374
-124.13916 3.635011 7.1441698
-124.139 5.1592002 7.1416607
-124.145 3.5207083 7.1443558
-123.991 3.5393951 7.1442833
-124.218 3.5919299 7.1442604
-123.98891 3.4977572 5.4868202
-123.40867 12.471916 4.4068608
-123.767 12.3779 3.59255
-123.75308 3.5697739 0.68723339
-123.75224 3.5898325 0.68723994
-123.75007 3.6387913 0.73068935
-125.817 3.4484501 3.6026199
-125.76575 3.5177073 6
-128.9785 3.6456749 3.9816675
-134.32462 4.0366902 7.1463947
-134.10968 3.8504303 7.1466389
-133.24786 3.9990499 7.1461515
-133.29822 4.0166998 7.1461372
-133.321 3.9462001 7.1462574
-133.85754 3.9997635 7.1463223
-128.23524 3.8559234 7.1449652
-131.39375 3.7832224 7.1459808
-129.26334 3.8664892 7.1452398
-131.707 3.9631 7.1457701
-148.043 4.7027898 7.1491899
-133.83678 9.7209339 3.60378
-133.51874 3.9348965 -1.2168672
-152.989 4.7284899 3.6250701
-129.46175 3.6814015 -1.3466425
-128.54446 3.9056015 -4.0782604
-129.82333 3.6967747 5.6740561
-133.01765 3.8071134 3.6548398
-133.11288 3.8096912 3.6703498
-126.09908 3.4730465 -3.1874001
-124.193 3.4477 -2.2351301
-123.868 9.9691801 -2.2086999
-132.34308 3.78843 3.7090302
-123.82316 3.5088227 -4.1258478
-125.10175 3.5994656 -4.112977
-123.96358 3.5900066 -4.1243649
-124.18 3.5833499 -4.1222
-124.10758 3.5896301 -4.122921
-123.733 3.8905399 -4.1263599
-123.70578 3.8851712 -4.1266422
-123.94934 3.8862534 -4.1242075
-125.36916 3.442919 -3.1844208
-125.6838 3.8305213 -4.1069241
-124.88683 3.4438426 -3.8042676
-124.1175 3.4469745 -3.1783617
-123.80534 3.8879499 -4.1256447
-123.95975 3.665895 -4.1243219
-132.71001 3.97262 7.14604
-132.5909 3.9893932 7.1459837
-132.25691 3.9811466 7.1459007
-132.35574 3.98 7.1459303
-132.21141 3.8221328 7.1461468
-132.353 3.9120502 7.146039
-134.23399 3.98159 -3.1407697
-134.29767 3.9803667 -3.6293294
-133.37141 3.9474642 -4.0299759
-134.45 3.98317 -4.0191593
-134.20067 3.9745901 -3.9238231
-134.209 3.9763401 -3.7280595
-132.97942 9.6929884 3.6030617
-132.756 3.9200699 -4.03615
-132.97508 3.9483941 -4.0339355
-123.7512 3.6882179 4.4041958
-123.75539 3.6032519 4.4040399
-123.75211 3.6573436 3.9711256
-123.75278 3.6474102 3.9711354
-123.75006 3.6980793 3.8684587
-123.75233 3.6533501 3.8785067
-123.75 3.7344699 5.1929598
-123.75366 3.6475976 4.8555355
-123.75173 3.6919258 4.929915
-124.21 3.7393899 7.1440201
-124.09492 4.5258818 7.1426888
-123.75324 3.6995671 6.818759
-125.46741 3.7190025 7.1444092
-126.16109 3.6962922 7.1446419
-123.7475 3.810595 6.16854
-123.74517 3.8615053 6.1686134
-123.71349 4.5274372 6.1695929
-124.203 3.89184 7.1437607
-123.75211 3.6552966 3.693259
-123.98624 3.5063949 4.37814
-124.13708 3.5085249 4.3660169
-123.87683 5.8787208 7.1404037
-125.01225 3.8236763 7.1441059
-123.79058 4.5273285 7.142602
-123.992 3.5175748 7.1443176
-123.83691 3.5601158 7.144207
-123.98817 3.5970376 7.1441898
-123.99258 3.4874275 6.8128605
-123.99026 3.5554626 7.1442566
-123.55401 12.434049 4.9306808
-123.552 12.43425 3.8599842
-125.8855 3.5331798 4.2289052
-125.82358 3.5244591 5.2367897
-126.30359 3.5015984 3.602994
-133.52467 3.9373932 7.1463299
-130.69334 3.8359468 7.1456957
-131.634 3.8875301 7.1458769
-149.62924 4.8506751 7.1493979
-133.75633 9.6999731 3.60373
-130.72551 3.7392826 5.6037807
-127.627 3.5615599 3.60409
-125.634 3.4430101 -2.2627299
-123.84234 10.415025 -3.1628768
-123.80301 11.201494 -3.1610496
-123.9675 3.5095577 -4.1244049
-123.96442 3.5734358 -4.1243734
-124.10842 3.5779724 -4.1229267
-124.165 3.8854499 -4.1220493
-124.89749 3.4444475 -3.1821325
-123.9725 3.4474425 -3.177685
-123.94867 3.8976669 -4.1242008
-123.94901 3.8919601 -4.1242046
-123.95492 3.7632875 -4.1242676
-123.95724 3.7148085 -4.1242943
-123.95274 3.8113325 -4.1242447
-132.709 3.9878399 7.1460199
-132.45459 3.9788532 7.1459599
-131.92325 3.7958875 7.1461105
-132.45274 3.8085525 7.1462402
-132.299 3.96872 7.1459303
-123.81208 11.148055 -1.2375333
-123.67484 12.399308 -3.1579506
-123.747 12.3807 -2.19893
-134.20799 3.98087 -4.0215797
-133.94299 3.9642601 -4.02425
-134.11711 3.9737434 -4.0224972
-134.12866 3.9740636 -3.6310265
-133.41525 3.9580626 -4.0295277
-134.45 3.98317 -4.0191593
-132.97525 9.8034267 3.6029549
-132.50409 3.8228915 -2.3931658
-132.758 3.8901999 -4.03617
-132.88878 3.9117043 -4.0348358
-123.75714 3.5682173 4.3989596
-123.74973 3.7191792 4.3992386
-123.75173 3.6689661 4.1463552
-123.754 3.6421936 4.9397664
-123.92191 4.9512315 7.141942
-123.94275 4.5266051 7.1426458
-123.82483 3.8115528 7.1437902
-123.97984 3.7621858 7.1439171
-125.81425 3.7076473 7.1445255
-123.73383 4.1004524 6.1689644
-123.96358 4.1019788 7.1433487
-123.75834 3.5296667 3.8659611
-123.98926 3.5760925 7.1442242
-133.52299 3.9696 7.1462765
-133.59479 9.7212439 3.60357
-123.96393 3.5799332 -4.1243649
-123.62278 3.8813179 -4.1274796
-123.82749 3.447911 -3.1770084
-132.66389 3.9789512 7.146019
-132.11467 3.8648465 7.1460495
-132.57268 3.9763935 7.145997
-132.21434 3.9429567 7.1459494
-123.747 12.3807 -2.19893
-123.80601 11.183792 -2.5228932
-123.53784 12.435409 -2.5155876
-123.76367 11.987965 -3.1592233
-133.28377 3.9363911 -4.0308628
-132.30759 3.8368568 -1.3897157
-132.94878 3.8324177 -2.4016531
-132.00325 3.811475 -2.3836071
-123.75834 3.542783 4.3964043
-123.75647 3.592664 4.9295368
-123.9815 3.7265708 7.1439772
-123.745 3.88749 7.1436405
-123.97749 3.8131776 7.1438303
-123.759 3.5094099 3.60078
-123.75513 3.5990875 3.8684733
-123.98975 3.5657773 7.1442404
-133.33733 3.8400536 -2.4090698
-123.96376 3.58497 -4.1243649
-123.96408 3.5766191 -4.1243668
-123.65033 3.8836234 -4.1271992
-132.716 3.8395 7.1462603
-132.5269 3.9776509 7.1459827
-132.29892 3.8601034 -2.6644356
-131.80408 3.7944286 -2.3798492
-124.13517 3.7100708 7.1440468
-123.9825 3.7063327 7.1440105
-123.97517 3.8641691 7.1437435
-124.13017 3.8148024 7.1438704
-124.14258 3.571439 7.1442738
-133.53178 3.8392811 -2.4127967
-123.74 3.7367201 -4.12644
-123.62244 3.8843811 -4.1274757
-131.995 3.8310101 7.1460705
-132.52722 3.972578 7.1459885
0 0 0 1 0 0 0 1 0 0 0 1 0 0 0 0 0 1032 1 0 0
