ply
format ascii 1.0
comment PCL generated
element vertex 1658
property float x
property float y
property float z
element face 0
element camera 0
property float view_px
property float view_py
property float view_pz
property float x_axisx
property float x_axisy
property float x_axisz
property float y_axisx
property float y_axisy
property float y_axisz
property float z_axisx
property float z_axisy
property float z_axisz
property float focal
property float scalex
property float scaley
property float centerx
property float centery
property int viewportx
property int viewporty
property float k1
property float k2
end_header
-132.442 3.8424001 7.7712998
-132.5571 3.8496001 7.7301998
-132.714 3.8548999 7.6690998
-132.82739 3.8598001 7.6262002
-133.6035 3.8954 7.3346
-133.7245 3.9049001 7.2937999
-134.0125 3.9196 7.1872001
-134.4091 4.1504002 7.2877998
-134.64301 4.1616998 7.2006001
-134.75909 4.1668 7.1567001
-135.18829 4.1868 6.9959002
-135.4938 4.2021999 6.8828001
-135.558 4.0535998 6.6806998
-135.6937 3.9955001 6.5542002
-135.7635 4.0022998 6.5321999
-135.8909 4.0089998 6.4853001
-136.0188 4.0184999 6.4415998
-136.09039 4.0222998 6.4152999
-136.21671 4.0278001 6.3674998
-136.54311 4.0453 6.2477999
-136.6622 4.0465999 6.1982002
-136.72749 4.0475998 6.1714001
-136.8078 4.0595999 6.1508999
-136.93359 4.0634999 6.1015
-137.6217 4.3710999 6.1669998
-137.81441 4.3723001 6.0855999
-137.9229 4.3590999 6.0235
-138.02609 4.3832998 6.0075998
-138.1152 4.3639998 5.9467001
-138.3304 4.3716998 5.8632998
-138.4212 4.3913999 5.8474002
-138.5127 4.4056001 5.8248
-138.6441 4.1364002 5.4524002
-138.9314 4.1462002 5.3404999
-139.2327 4.1655998 5.2339001
-139.3163 4.1745 5.2084999
-139.386 4.1767001 5.1810002
-140.01649 4.4520001 5.2333002
-140.202 4.4775 5.1835999
-140.30969 4.4626999 5.1199002
-140.42261 4.2508001 4.8228998
-140.5275 4.2318001 4.7554998
-140.60921 4.2358999 4.7252002
-140.86011 4.2518001 4.6360998
-141.0932 4.2586999 4.5440001
-141.1749 4.2649002 4.5163002
-141.25439 4.2673001 4.4850001
-141.3326 4.2714 4.4562001
-141.6799 4.2926002 4.3319001
-141.914 4.2995 4.2395
-142.0036 4.3065 4.2091999
-142.5041 4.5290999 4.2554998
-142.16541 4.3123002 4.1465001
-142.6627 4.5324998 4.1914001
-142.7764 4.5462999 4.1588001
-142.864 4.5549002 4.1311998
-142.95731 4.5577002 4.0945001
-143.03819 4.5644999 4.0676999
-143.1436 4.4926 3.938
-143.2885 4.3632998 3.7241001
-143.3741 4.3643999 3.6886001
-143.6449 4.3785 3.5888
-143.733 4.3834 3.5569
-143.8369 4.3923001 3.5225
-143.9131 4.3923001 3.4899001
-144.1132 4.4057999 3.4198
-144.19859 4.4067001 3.3842001
-144.38499 4.4190001 3.3185999
-144.46561 4.4183998 3.2832
-145.28011 4.6032 3.1503
-145.436 4.4705 2.9275999
-145.5424 4.473 2.8848
-145.6403 4.4821 2.8534999
-146.0405 4.4991002 2.7016001
-146.3403 4.5145001 2.5910001
-146.4384 4.5181999 2.5532
-146.6347 4.5222998 2.4737
-146.9402 4.5384998 2.3615
-147.1465 4.5433002 2.2785001
-148.4944 5.0268998 2.2672
-148.60809 5.0337 2.2265
-148.91901 5.0402002 2.1005001
-149.47 5.0640998 1.8918999
-149.58659 5.0682001 1.8467
-149.71609 5.0784998 1.8031
-149.8275 5.0812001 1.7586
-149.2153 4.7231998 1.6013
-149.71609 4.6715999 1.3257
-149.83299 4.6745 1.279
-149.9483 4.6795001 1.2352999
-150.6985 4.7238002 0.96509999
-151.3454 4.9538999 0.95730001
-151.4704 4.9621 0.91329998
-151.6124 4.9689002 0.8603
-151.7308 4.9761 0.81800002
-151.9881 4.9909 0.72479999
-152.0901 4.9839001 0.67269999
-151.9613 4.8332 0.55119997
-130.35069 3.9921 8.8112001
-130.453 4.0372 8.8199997
-130.5685 4.0139999 8.743
-130.64709 4.0441999 8.7446003
-130.76759 4.0253 8.6707001
-130.8533 4.0184002 8.6257
-130.96581 4.0300002 8.5908003
-131.0685 4.0363998 8.5541
-131.1537 4.0320001 8.5122004
-131.2713 4.0462999 8.4784002
-131.4722 3.7948 8.0967999
-131.5661 3.7953999 8.0571003
-131.7365 3.8099 8.0007
-131.8371 3.8159001 7.9643998
-132.63901 3.8532 7.6630001
-132.90781 3.8642001 7.5602002
-133.01891 3.8687 7.5176001
-133.13969 3.8819001 7.4812002
-133.3042 3.8857999 7.4148998
-133.4146 3.8913 7.3738999
-133.5273 3.8934 7.3277998
-133.80859 3.9035001 7.2185998
-133.9369 3.9179001 7.1802001
-134.5022 4.1570001 7.2174001
-134.8501 4.1652002 7.0773001
-134.97659 4.1795998 7.0397
-135.0963 4.1812 6.9900999
-135.2789 4.1924 6.9246998
-135.408 4.2010002 6.8790998
-135.5891 4.2077999 6.8091998
-135.606 3.9914 6.5479999
-136.3058 4.0272002 6.2887998
-136.3773 4.0352001 6.2673001
-137.0345 4.0668001 6.0215998
-137.5325 4.3348999 6.1217999
-137.72459 4.3720999 6.0826998
-138.23019 4.3734999 5.8667998
-138.6458 4.3891001 5.7062001
-138.7205 4.388 5.6728001
-138.60629 4.2867999 5.6030998
-138.61591 4.2167001 5.5166998
-138.6886 4.1406002 5.3962998
-138.7538 4.1406002 5.3681998
-139.04649 4.1564999 5.2607999
-139.1205 4.1571999 5.2298002
-139.42889 4.1799998 5.1237998
-139.53729 4.2013001 5.1020999
-140.21429 4.4273 5.0759001
-140.29379 4.4310002 5.046
-140.3656 4.4354 5.0202999
-140.4366 4.4359999 4.9905
-140.5231 4.4394002 4.9572001
-140.42619 4.3501 4.8941998
-140.66631 4.2452998 4.6677999
-140.8914 4.2463002 4.5721002
-140.9735 4.2563 4.5486002
-141.3777 4.2729001 4.3941002
-141.46291 4.2793002 4.3648
-141.53841 4.2803998 4.3336
-141.7907 4.2957001 4.243
-142.20351 4.3112998 4.0837002
-143.08701 4.5657001 4.0019002
-143.1738 4.5693998 3.9689
-143.2365 4.5625 3.9338
-143.16161 4.4397001 3.8218999
-143.1837 4.3674002 3.7276001
-143.4249 4.3702002 3.6271
-143.5094 4.3706002 3.5911
-143.9639 4.3962998 3.4258001
-144.23351 4.4071999 3.3225
-144.533 4.4266 3.2163999
-144.61 4.4260001 3.1824999
-145.1842 4.6641998 3.2149
-145.37399 4.6690998 3.1389
-145.2795 4.5809999 3.0762999
-145.30009 4.4638 2.9298999
-145.68359 4.4815001 2.7857001
-145.7852 4.4847002 2.7456
-145.87669 4.4854999 2.7072999
-146.08189 4.5007 2.6366999
-146.18021 4.5057001 2.6001999
-146.50369 4.5223999 2.4806001
-146.57021 4.5166001 2.4453001
-146.6826 4.5229998 2.4044001
-146.7872 4.5283999 2.3657
-146.9901 4.5349998 2.2860999
-147.1864 4.5433002 2.2114
-148.64639 5.0306001 2.1547999
-148.75391 5.0328999 2.1112001
-148.9825 5.046 2.0281
-149.0867 5.0461001 1.9835
-149.1852 5.0472002 1.9424
-149.30991 5.0577002 1.901
-149.21069 4.7893 1.6288
-149.2236 4.6557999 1.4665999
-149.2963 4.6476998 1.4259
-149.53059 4.6567001 1.3356
-149.65221 4.6641998 1.2921
-150.0096 4.6866999 1.1647
-150.1488 4.6935 1.1128
-150.2653 4.7028999 1.0736001
-150.38921 4.7041001 1.0217
-150.4879 4.7076001 0.98339999
-150.63161 4.7205 0.93669999
-151.9684 4.9057002 0.57859999
-129.4742 3.6989999 8.8112001
-129.569 3.7030001 8.7749996
-129.7076 3.7079999 8.7212
-129.8075 3.7165999 8.6880999
-131.3484 4.0513 8.4159002
-131.33299 3.8906 8.2341003
-131.6434 3.8009 7.9949002
-131.91299 3.8180001 7.8987002
-132.1756 3.8295 7.7989001
-132.3409 3.8382001 7.7378001
-132.4472 3.8459001 7.7010002
-132.5537 3.8485999 7.6581998
-132.7235 3.8611 7.5995998
-132.82961 3.862 7.5549002
-133.2153 3.8831 7.4131999
-133.6127 3.9001 7.2617998
-133.718 3.8987999 7.2147999
-134.0161 3.9205999 7.1118002
-134.3925 4.1434999 7.2108998
-134.5797 4.1560998 7.1448998
-134.70239 4.1652999 7.1027999
-135.181 4.1833 6.9175
-135.49989 4.2083998 6.8092999
-135.55409 4.1311998 6.6954002
-135.5589 4.0573001 6.6065998
-135.69701 3.9965999 6.4759002
-135.8331 4.0103998 6.4333
-135.9451 4.0107999 6.3853998
-136.0132 4.0137 6.3594999
-136.0825 4.0214 6.3386002
-136.2047 4.0261998 6.2915001
-136.46201 4.0348001 6.1905999
-136.52859 4.0405998 6.1687999
-136.6696 4.0502 6.1191001
-136.79021 4.0496001 6.0664001
-136.9305 4.0644002 6.0233002
-137.6201 4.3709002 6.0853
-137.8313 4.3821998 6.0074
-137.93179 4.3653002 5.9443998
-138.02901 4.3916001 5.9331999
-138.1261 4.3697 5.8656998
-138.3315 4.3785 5.7873998
-138.4227 4.3940001 5.7663002
-138.52229 4.4106002 5.7428002
-138.854 4.1448998 5.2880998
-138.9261 4.1492 5.2620001
-139.22839 4.165 5.1501002
-140.00909 4.4527001 5.1508002
-140.09241 4.4615002 5.1252999
-140.4321 4.2575998 4.7395
-140.5255 4.2335 4.671
-140.59959 4.2309999 4.6360998
-140.76331 4.2421999 4.5787001
-141.0157 4.2606001 4.4913998
-141.08749 4.2624002 4.4624
-141.168 4.2628999 4.4284
-141.23911 4.2659001 4.4013
-141.6454 4.2831998 4.2463002
-141.94479 4.3582001 4.2051001
-141.8987 4.2978001 4.1542001
-141.99229 4.3024001 4.1192002
-142.06889 4.3077002 4.0924001
-142.6579 4.5317001 4.1011
-142.7708 4.5490999 4.0728002
-142.85851 4.5538001 4.0405002
-142.9389 4.5566001 4.0089998
-143.0162 4.5576 3.9769001
-143.2746 4.3590002 3.6324999
-143.64101 4.3818998 3.5013001
-143.7258 4.382 3.4649
-143.8105 4.3859 3.4329
-144.0121 4.3997998 3.3622999
-144.10139 4.4074998 3.3327
-144.2762 4.4130998 3.2639999
-144.3764 4.4176002 3.2260001
-145.2128 4.6591001 3.1486001
-145.43761 4.4720998 2.8322999
-145.5248 4.4716001 2.7939999
-145.9321 4.4955001 2.6464
-146.2173 4.5046 2.5342
-146.3253 4.5138998 2.4984
-146.4346 4.5173001 2.4553001
-146.83 4.5338001 2.3041
-147.0287 4.5355 2.2204001
-147.2281 4.5416002 2.1415999
-148.4718 5.0177999 2.1637001
-148.79221 5.0356998 2.0465
-148.9001 5.0363998 2.0009
-149.0173 5.0426002 1.9576
-149.23779 5.0517001 1.8731
-149.3492 5.0574999 1.832
-149.465 5.0658998 1.7918
-149.5854 5.0672998 1.7415
-149.7 5.0767999 1.7033
-149.826 5.0830998 1.6564
-149.20441 4.7234998 1.5026
-149.57561 4.6616998 1.2701
-149.7011 4.6665001 1.2216001
-149.82359 4.6754999 1.1794
-149.944 4.6805 1.1332999
-150.0484 4.6827998 1.091
-150.18719 4.6989002 1.05
-150.30991 4.6998 0.99809998
-150.55521 4.7126002 0.9073
-150.68649 4.7289 0.86989999
-151.34959 4.9597001 0.85460001
-151.48019 4.9672999 0.8071
-151.6181 4.9784002 0.76069999
-151.9799 4.9923 0.62099999
-152.0782 4.9791002 0.5632
-151.9677 4.7997999 0.4005
-129.4006 3.6914001 8.8008003
-130.2453 4.0149002 8.8149996
-130.44591 4.0268998 8.7423
-130.55589 4.0049 8.6688995
-130.64841 4.0439 8.6745996
-130.7691 4.0212002 8.5958996
-130.9579 4.0240998 8.5176001
-131.0502 4.0244002 8.4780998
-131.3363 3.8406999 8.1389999
-131.3692 3.7902 8.0655003
-131.4664 3.7925 8.0262003
-131.57381 3.7980001 7.9863
-131.7832 3.8106 7.9103999
-131.99049 3.8196001 7.8312998
-132.101 3.8243999 7.7893
-132.2589 3.8359001 7.7344999
-132.6412 3.8526001 7.5888
-132.9129 3.8647001 7.4856
-133.02769 3.8742001 7.4471002
-133.1299 3.8763001 7.4053001
-133.30431 3.8855 7.3406
-133.40981 3.8906 7.3010998
-133.81 3.908 7.1485
-133.9296 3.9182999 7.1089001
-134.0759 3.9416001 7.0728998
-134.49561 4.1518998 7.1381998
-134.7963 4.171 7.0304999
-134.90331 4.1708999 6.9842
-134.9765 4.1774998 6.9601998
-135.093 4.1801 6.9129
-135.2728 4.1877999 6.8442001
-135.3427 4.1981001 6.8260999
-135.5938 4.211 6.7326999
-135.5997 3.9933 6.4748998
-136.30431 4.0283999 6.2115002
-136.37219 4.0377998 6.1931
-137.0188 4.0627999 5.9429002
-137.53 4.3376002 6.0440998
-137.7142 4.3719001 6.0047002
-138.024 4.3663001 5.8642998
-138.228 4.3761001 5.7876
-138.63271 4.3817 5.6192999
-138.7261 4.3979001 5.5978999
-138.60609 4.289 5.5219998
-138.61459 4.2195001 5.4369001
-138.62109 4.1461 5.348
-138.7462 4.1431999 5.2905002
-139.0425 4.1563001 5.1778002
-139.342 4.1735001 5.0685
-139.41499 4.1761999 5.0401001
-139.4901 4.1817999 5.0142999
-139.9707 4.4162998 5.0815001
-140.05659 4.4203 5.0489998
-140.20641 4.4268999 4.9920001
-140.282 4.4341998 4.9678998
-140.356 4.4334998 4.9351001
-140.4384 4.4386001 4.9054999
-140.50999 4.4375 4.8733001
-140.423 4.3519001 4.8105001
-140.42909 4.2350998 4.6708999
-140.881 4.2483001 4.4910998
-141.289 4.2716999 4.3421001
-141.3739 4.2742 4.3084002
-141.4474 4.2782001 4.2813001
-141.5208 4.2788 4.2502999
-141.7861 4.2965999 4.1564999
-142.1075 4.3053999 4.0279002
-142.2079 4.3176999 3.9988999
-143.07961 4.5653 3.9124
-143.1586 4.5709 3.8849001
-143.2357 4.5682001 3.8484001
-143.15511 4.4418998 3.7351
-143.1626 4.3667998 3.6438999
-143.3253 4.3638 3.5699999
-143.40781 4.3692002 3.5407
-143.4948 4.3688998 3.5027001
-143.8606 4.3892002 3.3684001
-144.1442 4.4102001 3.2704999
-144.4269 4.4225998 3.1628001
-144.5152 4.427 3.1299
-144.6082 4.4295998 3.0927
-145.5079 4.7842002 3.1197
-145.85201 4.9057002 3.1134
-145.2827 4.5911002 2.9905
-145.28281 4.4614 2.8383999
-145.3739 4.4636002 2.8017001
-145.5811 4.4829998 2.7348001
-145.6795 4.48 2.6888001
-145.7621 4.4822998 2.6559
-146.0647 4.4958 2.5409
-146.4767 4.5191998 2.3901999
-146.5731 4.5246 2.3548999
-146.6651 4.5187998 2.3083999
-146.7659 4.5258999 2.2730999
-148.51489 5.0215001 2.0983
-148.6225 5.0247998 2.0557001
-149.05701 5.04 1.8857
-149.16721 5.0464001 1.8456
-149.28799 5.0507002 1.7984
-149.6281 5.0707002 1.6749001
-149.7444 5.0735998 1.628
-149.21651 4.7947998 1.5293
-149.21339 4.6602001 1.3728
-149.2719 4.6437998 1.3283
-149.75 4.6708999 1.1535
-150.1226 4.6904998 1.0154001
-150.2451 4.6971998 0.97039998
-150.3618 4.7034998 0.92739999
-150.4758 4.7076998 0.88300002
-150.6021 4.711 0.83230001
-151.2782 4.9542999 0.82539999
-151.53259 4.9703002 0.7342
-151.662 4.9770002 0.68610001
-151.78329 4.9762998 0.63279998
-151.9126 4.9847002 0.58679998
-151.9561 4.9123998 0.4833
-151.9657 4.8685999 0.4278
-129.28619 3.6853001 8.8097
-129.6152 3.7042999 8.6893997
-130.34061 3.9965 8.7177
-130.8508 4.0310998 8.5370998
-131.1524 4.0467 8.4246998
-131.2484 4.0437999 8.3799
-131.3586 4.0553999 8.3456001
-131.655 3.8044 7.9229999
-131.8642 3.8175001 7.8477001
-132.18559 3.8327 7.7263999
-132.39191 3.8401999 7.6458001
-132.50459 3.8471999 7.6051002
-132.7256 3.8578 7.5218
-132.83211 3.8608999 7.4793
-133.21181 3.8798001 7.3369999
-133.4966 3.8952999 7.2318001
-133.6055 3.8958001 7.1852002
-134.3956 4.1458001 7.1360002
-134.5894 4.1606002 7.0693002
-134.6972 4.1622 7.0246
-135.18649 4.1865001 6.8411002
-135.4319 4.1999002 6.7505002
-135.5023 4.2090998 6.7308002
-135.552 4.1273999 6.6135001
-135.552 4.0528998 6.5261002
-135.69141 3.9969001 6.4001002
-135.8139 4.0026002 6.3537998
-135.8849 4.0100999 6.3316998
-136.0099 4.0131998 6.2811999
-136.07829 4.0191998 6.2586002
-136.14619 4.0265002 6.2378998
-136.4561 4.0366001 6.1153998
-136.52969 4.0419002 6.0897999
-136.599 4.0475998 6.0664001
-136.7281 4.0531998 6.0170002
-136.85809 4.0606999 5.9695001
-136.9256 4.0598001 5.9391999
-137.0686 4.0721998 5.8917999
-137.5914 4.3578 6.0001998
-137.81821 4.3775001 5.9249001
-137.9364 4.3744998 5.8702998
-138.1216 4.3704 5.7852998
-138.3244 4.3765001 5.7045999
-138.42709 4.3951001 5.6819
-138.5228 4.3758001 5.6178002
-138.84821 4.1469002 5.2084999
-138.9174 4.1458001 5.1773
-139.1573 4.1677999 5.0991998
-140.511 4.2251 4.5799999
-140.6039 4.2392001 4.5563002
-140.6821 4.2388 4.5219002
-140.9913 4.2508998 4.4022002
-141.0764 4.2579002 4.3736
-141.14909 4.2588 4.3431001
-141.7406 4.3783002 4.2270002
-141.6407 4.2835999 4.1592999
-141.8999 4.2988 4.0647998
-141.9832 4.3045001 4.0353999
-142.7635 4.5468001 3.9814999
-142.8394 4.5514002 3.954
-142.9306 4.5565 3.9203999
-143.1619 4.5114002 3.7674
-143.1991 4.3653002 3.5801001
-143.54021 4.3761001 3.4449999
-143.63139 4.3776002 3.4073
-143.7061 4.3806 3.3785
-143.8981 4.3909001 3.3073001
-144.00301 4.4004998 3.2732
-144.18649 4.4106998 3.2056999
-144.2697 4.4137998 3.1731999
-144.6506 4.4345002 3.0325
-145.62621 4.8653002 3.1149001
-145.27451 4.5662999 2.9168
-145.4194 4.4693999 2.7405
-145.6131 4.4773998 2.6659999
-145.8192 4.4891 2.5905001
-145.92191 4.4945998 2.5524001
-146.1097 4.5021 2.4798999
-146.21271 4.5057998 2.4396
-146.3195 4.5110002 2.3994
-146.9207 4.5356998 2.1681001
-147.0359 4.54 2.1231
-147.1293 4.5472002 2.0912001
-147.34579 4.5559001 2.0076001
-148.6703 5.0261998 1.9852
-148.7749 5.0307999 1.9453
-148.8972 5.0344 1.8966
-149.33121 5.0538998 1.7315
-149.46671 5.0651999 1.686
-149.2383 4.8741999 1.5611
-149.3257 4.8706002 1.5191
-149.56979 4.658 1.1641001
-149.8147 4.6726999 1.0753
-149.9247 4.6805 1.0368
-150.0365 4.6801 0.98799998
-150.1759 4.6943002 0.94419998
-150.2849 4.6943998 0.89719999
-150.5361 4.7119999 0.8089
-150.6606 4.7210002 0.76560003
-151.35201 4.9605999 0.74699998
-151.5932 4.9677 0.65090001
-151.71111 4.9777999 0.6117
-151.84081 4.9819999 0.56040001
-151.9688 4.9882002 0.51230001
-129.45641 3.6991 8.7186003
-129.6904 3.7093 8.6288996
-129.79671 3.7191999 8.5943003
-130.23669 4.0036001 8.7364998
-130.44431 4.0244999 8.6709003
-130.64951 4.0384002 8.5980997
-131.37151 3.7895999 7.9931002
-131.47211 3.7951 7.9559002
-131.57359 3.7969 7.914
-131.733 3.8111 7.8614001
-131.9348 3.8153999 7.7788
-132.2614 3.8368001 7.6620998
-132.58749 3.8515999 7.5379
-132.911 3.8648 7.4129
-133.0222 3.8729999 7.3743
-133.1311 3.8734 7.3274002
-133.2914 3.8817 7.2676001
-133.41161 3.8896 7.2245998
-133.6982 3.9022999 7.1152
-133.8046 3.9033999 7.0703001
-133.9236 3.9152 7.0324001
-134.05051 3.9260001 6.9899998
-134.49699 4.1568999 7.0667
-134.7854 4.1666999 6.9530001
-134.9127 4.1742001 6.9066
-135.03461 4.1801 6.8604999
-135.2795 4.1949 6.7715998
-135.7058 4.2873001 6.6949
-135.8364 4.3309002 6.6891999
-135.5966 3.9916 6.3957
-136.24139 4.0304999 6.1613998
-136.3597 4.0324998 6.1122999
-137.5247 4.3339 5.9598999
-137.7074 4.3685002 5.9211998
-137.9279 4.3509998 5.8049002
-138.01489 4.3618999 5.7799001
-138.2233 4.3723998 5.7017999
-138.6239 4.3803 5.5370998
-138.7274 4.3993001 5.5144
-138.6109 4.2175999 5.3522
-138.6144 4.1437998 5.2641001
-138.7394 4.1427002 5.2086
-138.9642 4.1539998 5.1243
-139.03461 4.1578002 5.0981998
-139.25121 4.1652999 5.013
-139.33659 4.1728001 4.9847002
-139.407 4.1791 4.9615002
-139.4814 4.1806002 4.9310002
-139.9709 4.4168 4.9952998
-140.0497 4.4212999 4.9663
-140.117 4.4204001 4.9361
-140.19209 4.4238 4.9074998
-140.2684 4.4295998 4.8811998
-140.351 4.4299002 4.8456998
-140.4227 4.4361 4.8218002
-140.5029 4.4361 4.7869
-140.42661 4.3608999 4.7319999
-140.4373 4.2454 4.592
-140.79221 4.2449002 4.4373999
-140.87601 4.2491002 4.4059
-141.1904 4.2620001 4.2845001
-141.2812 4.2691002 4.2535
-141.3595 4.2771001 4.2289
-141.5282 4.2817998 4.1612
-141.6891 4.2895002 4.1004
-141.7673 4.2922001 4.0696001
-142.0215 4.3067002 3.9763
-142.1089 4.3084998 3.9405
-142.1935 4.3178 3.9145999
-142.98289 4.5625 3.8587
-143.0531 4.5598001 3.8250999
-143.2411 4.5699 3.7553
-143.1492 4.4418998 3.6452999
-143.2372 4.3670998 3.5193999
-143.3195 4.368 3.4847
-143.388 4.3618002 3.4477
-143.4774 4.3671999 3.4152999
-143.7655 4.3881001 3.3146999
-144.31509 4.4123998 3.1046
-144.4021 4.4169998 3.0723
-144.494 4.4193001 3.0351
-145.76489 4.9106998 3.0592999
-145.8486 4.9105 3.0227001
-145.28259 4.5472999 2.8427999
-145.27969 4.4638 2.7463
-145.4735 4.4745002 2.6745999
-145.6618 4.4804001 2.5999
-145.8503 4.4850001 2.5235
-145.95531 4.4949002 2.4895
-146.14861 4.5001001 2.4117
-146.3499 4.5103002 2.3362999
-146.4597 4.5173998 2.2969
-146.57269 4.5250001 2.2567999
-146.6588 4.5212998 2.2151
-146.76511 4.5281 2.177
-147.1754 4.5454998 2.0193
-148.50549 5.0229998 2.0016
-148.6084 5.0191998 1.9524
-148.9416 5.0405998 1.8329
-149.0442 5.0387001 1.7861
-149.1714 5.0496998 1.7438999
-149.3938 5.0584002 1.6575
-149.508 5.0644002 1.615
-149.15469 4.8656998 1.5354
-149.30811 4.8418002 1.441
-149.2135 4.7501998 1.3747
-149.20889 4.6636 1.2752
-149.2776 4.6465998 1.2254
-149.39461 4.6518002 1.1808
-149.62151 4.6630001 1.0955
-149.745 4.6725998 1.0531
-150.105 4.6852999 0.91180003
-150.21761 4.6945 0.87370002
-150.3475 4.7027998 0.82700002
-150.4711 4.7073998 0.77869999
-151.25391 4.9454002 0.71799999
-151.3886 4.9601002 0.6767
-151.5231 4.9684 0.62809998
-151.95799 4.8213 0.26699999
-129.0948 3.6735001 8.8128004
-129.19299 3.6789 8.7763004
-129.33859 3.6949 8.7316999
-129.5258 3.7007 8.6570997
-130.5544 4.0198002 8.5833998
-130.7522 4.0265999 8.5053997
-130.84531 4.0265002 8.4646997
-130.9444 4.0325999 8.4287996
-131.049 4.0384998 8.3901997
-131.3528 4.0511999 8.2728996
-131.3223 3.9188001 8.1310997
-131.32761 3.8501 8.0482998
-131.6545 3.8046999 7.8527999
-131.8064 3.8124001 7.7957001
-132.0264 3.8267 7.7168999
-132.11659 3.8243999 7.6749001
-132.3344 3.8380001 7.5960002
-132.44659 3.8441999 7.5545001
-132.66499 3.8583 7.4759998
-132.7729 3.8615 7.4329
-133.21159 3.8817 7.2656999
-133.49049 3.8945 7.1592999
-134.3878 4.1436 7.0608001
-134.58121 4.1582999 6.9938998
-134.6929 4.1627002 6.9505
-135.1109 4.1812 6.7902999
-135.1864 4.1912999 6.7693
-135.36639 4.1982999 6.6991
-135.6203 4.2893 6.6954002
-135.8826 4.3877001 6.6964998
-135.5486 4.1297998 6.5397
-135.55431 4.0597 6.4551001
-135.67641 3.9923 6.323
-135.74921 3.9986999 6.2989001
-135.86861 4.0029998 6.2519002
-135.93671 4.0091 6.2294998
-136.0153 4.0211 6.2094002
-136.12669 4.0194001 6.1589999
-136.4534 4.0397 6.0405002
-136.52609 4.0457001 6.0159998
-136.64999 4.0472002 5.9639001
-136.71809 4.0513 5.9390001
-136.7852 4.0570002 5.9166002
-136.9111 4.0559001 5.8604002
-136.9908 4.0702 5.8425999
-137.6275 4.3452001 5.8878002
-137.8318 4.3523998 5.8073001
-138.12219 4.3741002 5.7063999
-138.328 4.3852 5.6297998
-138.43201 4.4032998 5.6058998
-138.53011 4.3842001 5.5408001
-138.8387 4.1472001 5.1290002
-139.1416 4.1636 5.0163999
-139.8851 4.3916001 4.9601002
-140.437 4.3088999 4.6231999
-140.505 4.2262998 4.4969001
-140.5883 4.2377 4.474
-140.6635 4.2357001 4.4389
-140.9855 4.2543001 4.3206
-141.0697 4.2607999 4.2916999
-141.4189 4.3273001 4.2177
-141.88789 4.2992001 3.9807999
-142.2426 4.3259001 3.8578
-142.7482 4.5468998 3.8966999
-142.82539 4.5488 3.8654001
-142.9133 4.5555 3.8350999
-143.2095 4.5451999 3.6940999
-143.51939 4.3740001 3.3587999
-143.60139 4.3695998 3.3180001
-143.685 4.3771 3.2904
-143.87959 4.3888001 3.2193999
-143.98309 4.3983002 3.1856999
-144.0742 4.4029999 3.1515
-144.1622 4.4078999 3.1189001
-144.54961 4.4292002 2.9754
-144.62109 4.4266 2.9412999
-145.6974 4.9060998 3.0349
-145.4073 4.4695001 2.6496
-146.0148 4.5012002 2.4224999
-146.19591 4.5046 2.3477001
-147.0162 4.539 2.0313001
-148.4366 5.0146999 1.9708
-148.6532 5.0257001 1.8894
-148.75191 5.0261002 1.847
-148.87 5.0314999 1.802
-148.9781 5.0373001 1.7617
-149.1041 5.0458002 1.7169
-149.2028 5.0490999 1.6778001
-149.3231 5.0581999 1.6362
-149.01019 4.8697 1.5515
-149.2063 4.8659 1.4618
-149.6754 4.6689 1.027
-149.7916 4.6694002 0.97710001
-149.89951 4.6771002 0.93919998
-150.0172 4.6792998 0.89050001
-150.1492 4.691 0.84689999
-150.2597 4.6911998 0.79900002
-150.38811 4.7009001 0.75449997
-150.5004 4.7049999 0.7105
-150.6261 4.7139001 0.66619998
-151.4368 4.9607 0.60280001
-151.9575 4.8951998 0.29960001
-129.02499 3.6712 8.8078003
-129.26109 3.6849999 8.7210999
-129.5916 3.7044001 8.5997
-129.7388 3.7133 8.5459995
-130.25281 3.9865 8.6417999
-130.3472 4.0250001 8.6457996
-130.4525 3.9993999 8.5698996
-130.65961 4.0138001 8.4965
-131.1459 4.0636001 8.3428001
-131.2549 4.0764999 8.3104
-131.4082 3.7923 7.9106002
-131.5163 3.7993 7.8717999
-131.72009 3.8055 7.7901001
-131.8754 3.8143001 7.7326999
-132.1937 3.8311 7.6136999
-132.5217 3.8487999 7.4914999
-132.8461 3.8659999 7.3701
-132.9519 3.8694999 7.3281002
-133.0714 3.8782001 7.2862
-133.3412 3.8842001 7.1756001
-133.5601 3.8940001 7.0915999
-133.73759 3.9051001 7.0272002
-133.85091 3.9126999 6.9867001
-133.97169 3.9196 6.9422998
-134.4742 4.1539998 6.9976001
-134.774 4.1683002 6.8836002
-134.8943 4.1718001 6.8353
-135.0148 4.1799002 6.7923002
-135.2605 4.1901002 6.6971002
-135.49429 4.2722998 6.6915002
-135.7769 4.3792 6.6935
-137.3903 5.3916998 7.1759
-137.5022 5.4256001 7.1668
-135.575 3.9919 6.3280001
-136.2225 4.0309 6.0913
-136.3472 4.0314999 6.0377002
-137.7251 4.3551002 5.816
-138.62781 4.3927002 5.4665999
-138.6412 4.1364999 5.1606998
-138.7231 4.1413999 5.1307001
-138.93491 4.1540999 5.0531998
-139.0141 4.158 5.0233002
-139.22971 4.1658001 4.9383998
-139.3051 4.1712999 4.9120998
-139.38341 4.1789999 4.8870001
-139.46339 4.1813002 4.8548002
-140.02 4.4161 4.8871002
-140.0943 4.4236002 4.8635001
-140.1676 4.4242001 4.8322001
-140.2538 4.4310999 4.8028002
-140.3221 4.4305 4.7722998
-140.4073 4.4384999 4.7445998
-140.4733 4.4376998 4.7147999
-140.4511 4.3867002 4.6648002
-140.4353 4.2574 4.5202999
-140.7767 4.2470999 4.3594999
-141.2041 4.2832999 4.2154999
-141.5056 4.4061999 4.2280998
-141.32739 4.2728 4.1494002
-141.4128 4.2742 4.1139002
-141.492 4.2806001 4.0868001
-141.57809 4.2827001 4.0518999
-141.64819 4.2845998 4.0235
-141.7357 4.2891002 3.9907
-141.99409 4.3048 3.8963001
-142.0688 4.3052001 3.8642001
-142.1671 4.3176999 3.8361001
-142.661 4.5297999 3.8691001
-143.0271 4.5602999 3.7453001
-143.12109 4.5658002 3.7107999
-143.1524 4.4633999 3.5773001
-143.1611 4.3839002 3.4802999
-143.28329 4.3638 3.4035001
-143.3689 4.3681998 3.3714001
-143.4408 4.3656001 3.3369999
-143.72279 4.3790002 3.2298
-143.7977 4.3818998 3.2005999
-144.28419 4.4127998 3.0246999
-144.38519 4.4250998 2.9951
-144.4621 4.4152999 2.9500999
-144.653 4.4254999 2.8789001
-145.8219 4.9126 2.9398
-145.2942 4.6121998 2.8180001
-145.27991 4.5639 2.7677
-145.2805 4.4815001 2.6709001
-145.5295 4.4762998 2.5564001
-145.6275 4.4759998 2.5132999
-145.7316 4.4865999 2.4802001
-145.8282 4.4927001 2.4453001
-145.9279 4.4926 2.4017999
-146.32739 4.5138998 2.2526
-146.4395 4.5207 2.2117
-146.5329 4.5212998 2.1717
-146.7303 4.5275998 2.0931001
-146.8278 4.5345001 2.0587001
-146.94501 4.5377002 2.0114
-147.2348 4.5478001 1.8968
-148.5815 5.0219998 1.8652
-148.7934 5.0324998 1.7851
-149.0204 5.0402002 1.6952
-149.24609 5.0500998 1.6084
-148.901 4.8579998 1.5339
-149.13091 4.8660002 1.443
-149.3441 4.8706999 1.3557
-149.20309 4.7666998 1.2954
-149.2112 4.677 1.1868
-149.57359 4.6591001 1.0079
-149.71271 4.6690001 0.95880002
-149.9487 4.6806998 0.86970001
-150.0594 4.6884999 0.83069998
-150.302 4.6974001 0.7353
-150.4213 4.7017002 0.68830001
-150.548 4.7104001 0.6433
-150.67039 4.7177 0.59859997
-151.3474 4.9590001 0.58600003
-151.4881 4.9647002 0.53140002
-152.07069 4.9768 0.29159999
-151.96111 4.8836002 0.23029999
-129.3223 3.6854999 8.6618996
-129.4286 3.6991999 8.6316004
-129.6636 3.7109001 8.5425997
-129.8035 3.7160001 8.4874001
-131.3351 3.7894001 7.9040999
-131.5878 3.8002 7.8063998
-131.96581 3.825 7.6703
-132.05701 3.8237 7.6289001
-132.2655 3.8317001 7.5471001
-132.3848 3.8427999 7.5081
-132.58771 3.8475001 7.4250002
-132.7019 3.8556001 7.3845
-133.15041 3.8864 7.2245998
-133.2538 3.8838 7.1764002
-133.4155 3.8873999 7.1099
-133.64079 3.8982 7.0242
-134.6187 4.1615 6.9052
-135.09959 4.1824999 6.7198
-135.4183 4.2810998 6.6959
-135.54761 4.3283 6.6947999
-135.6888 4.3831 6.6971998
-137.2729 5.3799 7.1722002
-137.5511 5.4775 7.1651001
-137.6841 5.5281 7.1661
-135.7267 3.9986999 6.2305999
-135.8559 4.0044999 6.1810002
-135.9823 4.0110998 6.1335001
-136.429 4.0356002 5.967
-136.50529 4.0427999 5.9422002
-136.6311 4.0462999 5.8912001
-136.7623 4.0562 5.8455
-136.8282 4.0545001 5.8147001
-136.96609 4.0641999 5.7659001
-137.52119 4.3302999 5.8348999
-137.6259 4.3551998 5.8182998
-137.9196 4.3836002 5.7233
-138.0251 4.3692002 5.6603999
-138.12241 4.3848 5.6360998
-138.23441 4.3786001 5.5798998
-138.3331 4.3976002 5.5591002
-138.40511 4.4018002 5.5325999
-138.7196 4.3964 5.3888001
-138.60651 4.2893 5.3127999
-138.6066 4.2164998 5.2276001
-138.81059 4.1429 5.0523
-139.1153 4.1636 4.9435
-140.4249 4.3196998 4.5542002
-140.4776 4.2283001 4.4240999
-140.5573 4.2326999 4.3944998
-140.63789 4.2393999 4.3670998
-140.70689 4.2389998 4.3365002
-140.8773 4.2509999 4.2761002
-140.95219 4.2501998 4.2424998
-141.0289 4.2547998 4.2143002
-141.30409 4.3649998 4.2231002
-141.8463 4.2936001 3.9026999
-142.2038 4.3182001 3.7753999
-142.7981 4.5497999 3.7869
-142.88789 4.5542002 3.7528999
-143.2327 4.5716 3.6226001
-143.4886 4.3706999 3.2757001
-143.5531 4.3669 3.243
-143.8437 4.3864999 3.1391001
-143.9446 4.3955998 3.1056001
-144.04089 4.4040999 3.0736001
-144.1228 4.4033999 3.0369999
-144.5739 4.4180002 2.8571
-145.6579 4.9013 2.9493999
-145.84959 4.9088001 2.8743999
-145.3741 4.4682002 2.5664001
-145.45911 4.4714999 2.5330999
-145.7579 4.4822001 2.415
-145.8445 4.4822001 2.3771999
-146.0504 4.4977999 2.3055
-146.1552 4.4995999 2.2618999
-146.2515 4.5054998 2.2268
-146.3654 4.5118999 2.1845
-146.8765 4.5363002 1.9899
-147.0759 4.5444002 1.9123
-147.28889 4.5531001 1.8293999
-148.40109 5.0135999 1.8827
-148.498 5.0159001 1.8431
-148.7229 5.0251999 1.7558
-148.8364 5.0351 1.7178
-148.944 5.0349002 1.6705
-148.7287 4.8519001 1.5504
-148.94099 4.8548999 1.4611
-149.05119 4.8618002 1.4211
-149.2583 4.8663998 1.336
-149.2879 4.8285999 1.2789
-149.2092 4.7535 1.2253
-149.6279 4.6630001 0.93660003
-149.85471 4.6739998 0.85039997
-150.21941 4.6901999 0.70999998
-150.33949 4.7000999 0.6692
-150.4675 4.7087998 0.62339997
-150.593 4.7115998 0.57200003
-151.2175 4.9320002 0.5571
-128.8868 3.6688001 8.7996998
-128.96809 3.6684999 8.7636995
-129.0652 3.6759 8.7298002
-129.1554 3.6795001 8.6946001
-129.4948 3.7042999 8.5749998
-130.12621 3.9635999 8.6020002
-130.3499 3.9986 8.5451002
-130.54491 4.0439 8.5127001
-130.7433 4.0539999 8.4377003
-130.8595 4.0693002 8.4047003
-130.9568 4.0711002 8.3641996
-131.0463 4.0700998 8.3239002
-131.15491 4.0432 8.2447996
-131.24809 4.0444999 8.2054996
-131.3461 4.0784998 8.2023001
-131.3237 3.9182 8.0246
-131.33141 3.8498001 7.9411998
-131.4485 3.7914 7.8214998
-131.65891 3.8083999 7.7493
-131.75819 3.8094001 7.7069998
-132.1274 3.8288 7.5679998
-132.4549 3.8489001 7.4482002
-132.7795 3.8618 7.3211999
-132.8898 3.8677001 7.2797999
-132.9902 3.8701999 7.2388
-133.3215 3.8826001 7.1082001
-133.48959 3.8921001 7.0457001
-133.718 3.9022999 6.9576998
-133.897 3.9172001 6.8968
-134.0144 3.9247999 6.8541999
-134.3746 4.1332002 6.9404998
-134.45531 4.1525998 6.9278998
-134.69119 4.1634002 6.8372002
-134.81799 4.1715999 6.7914
-134.9431 4.1801 6.7466002
-135.1624 4.2126002 6.6886001
-135.2886 4.2616 6.6905999
-137.1423 5.3642998 7.1697998
-137.42799 5.4696002 7.1679001
-135.5524 4.1363001 6.4285002
-135.54939 4.0595999 6.3400998
-135.556 3.9906001 6.2563
-136.062 4.0159001 6.0644999
-136.1333 4.0237002 6.0425
-136.25999 4.0325999 5.9973998
-136.32471 4.0310998 5.9672999
-137.05409 4.0732999 5.6974001
-137.77769 4.3604002 5.7165999
-138.4646 4.3870001 5.447
-138.62131 4.1392999 5.0886002
-138.6922 4.1385002 5.0566001
-138.91299 4.1546998 4.9789
-139.2066 4.1666002 4.8642998
-139.2796 4.1733999 4.8403001
-139.3521 4.1760001 4.8116002
-139.4391 4.1835999 4.7824001
-139.99561 4.4190001 4.8144002
-140.0641 4.4201999 4.7858
-140.1353 4.4235001 4.7584
-140.2198 4.4264002 4.7248998
-140.2932 4.4319 4.6991
-140.36169 4.4261999 4.6626
-140.522 4.4396 4.6079998
-141.1349 4.2616 4.1314998
-141.2076 4.2631001 4.1013999
-141.2991 4.2737999 4.0738001
-141.3736 4.2694998 4.0362
-141.466 4.2817001 4.0100002
-141.5589 4.2887998 3.9777
-141.62289 4.2869 3.9474001
-141.7067 4.2919998 3.9168
-141.9608 4.3024001 3.8176999
-142.03059 4.3035002 3.7883999
-142.1266 4.3116999 3.7560999
-142.73061 4.5450001 3.7646999
-142.99049 4.5599999 3.6684
-143.0791 4.5588002 3.6283
-143.22141 4.5500998 3.5558
-143.1456 4.4779 3.5044999
-143.16389 4.4014001 3.4068999
-143.2637 4.3713002 3.3281
-143.3286 4.3634 3.2904
-143.6832 4.3761001 3.1501
-143.7708 4.3835001 3.1204
-144.23331 4.4081998 2.9468999
-144.3311 4.4143 2.9112
-144.43069 4.4172001 2.8708999
-144.6187 4.4267001 2.7997999
-145.7724 4.9066 2.8564999
-145.27631 4.5815001 2.6931
-145.2809 4.5016999 2.5978
-145.49651 4.474 2.4709001
-145.6006 4.4826999 2.4356
-145.6805 4.4798002 2.3973
-145.8842 4.4882002 2.3178
-146.4948 4.5205998 2.0885999
-146.59711 4.526 2.0501001
-146.68581 4.5275998 2.0132
-146.7829 4.5309 1.9744999
-146.98669 4.5351 1.8902
-147.21201 4.5538001 1.8135999
-148.6403 5.0233002 1.7378
-148.632 4.8411002 1.5283
-148.84979 4.8512001 1.4447
-149.0773 4.8589001 1.3542
-149.17731 4.8632998 1.3156
-149.2067 4.6954002 1.1062
-149.2975 4.6447001 1.0071
-149.4043 4.6469002 0.963
-149.50841 4.6500001 0.921
-149.6671 4.6669998 0.8714
-149.7751 4.6740999 0.8326
-150.3665 4.6975999 0.60119998
-150.4917 4.7049999 0.55510002
-128.8046 3.6636 8.7964001
-129.222 3.6854999 8.6388998
-129.3625 3.6933 8.5864
-129.554 3.7042 8.5150995
-129.6857 3.7039001 8.4569998
-130.2449 4.0091 8.5688
-130.44991 4.0283999 8.5014
-130.56641 4.0112 8.4301004
-130.65041 4.0391998 8.4260998
-130.7502 4.0103998 8.3485003
-130.8638 4.0225 8.3128004
-130.9606 4.0240002 8.2721004
-131.0515 4.0253 8.2337999
-131.35249 4.0335999 8.1113997
-131.3685 3.7923 7.8221002
-131.5182 3.796 7.7607002
-131.8309 3.8144 7.6451001
-131.93291 3.8197999 7.6065998
-132.19859 3.832 7.5043998
-132.30389 3.8340001 7.4604001
-132.51421 3.8436 7.3793998
-132.63049 3.8541 7.3407001
-133.07249 3.8805001 7.1775999
-133.17081 3.8752 7.1283002
-133.5574 3.8922999 6.9787998
-133.7999 3.9105999 6.8937998
-134.5307 4.1556001 6.8599
-135.47031 4.3666 6.6946001
-135.5945 4.4144001 6.6959
-137.3051 5.4594002 7.1682
-137.5959 5.5647998 7.164
-137.7438 5.6219001 7.1659002
-137.89149 5.6766 7.1651001
-135.6328 3.9925001 6.1855001
-135.7679 4.0025001 6.1378999
-135.8871 4.0043998 6.0878
-136.4001 4.0307999 5.8937001
-136.46741 4.0391002 5.8737998
-136.54491 4.0458002 5.8477001
-136.66901 4.0517001 5.8000998
-136.7946 4.0527 5.7462001
-136.862 4.0574002 5.7220998
-136.93469 4.0657001 5.6999998
-137.64661 4.3456998 5.7153001
-137.83031 4.3435998 5.6321998
-137.9359 4.3701 5.6170001
-138.0329 4.3544002 5.5560002
-138.12289 4.3687 5.5331998
-138.286 4.3878999 5.4842
-138.54221 4.3832998 5.3663998
-138.6236 4.3969998 5.3467999
-138.7859 4.1430998 4.9784999
-138.99361 4.1545 4.9007001
-139.07401 4.1595998 4.8715
-140.4776 4.4067001 4.5448999
-140.42529 4.3369002 4.4861002
-140.44189 4.2283001 4.3518
-140.50751 4.2258 4.3200998
-140.5993 4.2392998 4.2955999
-140.67371 4.2357001 4.2586999
-140.75529 4.2438998 4.2326002
-140.9818 4.2493 4.1395001
-141.8158 4.2976999 3.8303001
-142.84419 4.5514998 3.6761
-143.44611 4.3722 3.2024
-143.5305 4.3771 3.171
-143.61549 4.3722 3.1280999
-143.8929 4.3934999 3.0313001
-143.9928 4.3993001 2.9942999
-144.08839 4.4054999 2.9596
-144.5444 4.4215002 2.7783
-145.8286 4.8807998 2.7523999
-145.32249 4.4684 2.4920001
-145.4182 4.4700999 2.4519999
-145.7962 4.4816999 2.2997
-146.0174 4.4984002 2.2223001
-146.09801 4.4972 2.1854999
-146.2101 4.5030999 2.1431999
-146.31441 4.5160999 2.1126001
-146.4175 4.5173001 2.0688
-147.0406 4.5447001 1.8276
-147.1362 4.5500998 1.7920001
-147.2477 4.5528998 1.7463
-147.34641 4.5622001 1.7139
-148.4435 5.0141001 1.7615
-148.67439 5.0271001 1.6754
-148.7843 5.0310998 1.6319
-148.5439 4.8376002 1.511
-148.6664 4.8435998 1.4642
-148.7821 4.8527999 1.4242001
-148.88341 4.8523998 1.3794
-148.98421 4.8552999 1.3386
-149.2112 4.8629999 1.248
-149.3172 4.8669 1.2061
-149.2108 4.7723999 1.1422
-149.22121 4.6441002 0.98750001
-149.56129 4.6575999 0.85420001
-149.81281 4.6729002 0.76169997
-149.9176 4.6777 0.72140002
-150.0457 4.6827998 0.67119998
-150.142 4.6851001 0.63169998
-150.3956 4.6982002 0.53570002
-150.52521 4.7059002 0.48789999
-128.6823 3.6552 8.8072004
-129.0038 3.6726999 8.6864004
-129.0945 3.6759 8.6501999
-129.28951 3.6898 8.5806999
-129.42751 3.6965001 8.5279999
-129.6057 3.7009001 8.4547005
-129.7626 3.7146001 8.4017
-131.58949 3.8052001 7.7045002
-131.69341 3.8088 7.6629
-132.0036 3.8215001 7.5414
-132.10069 3.8232999 7.5008998
-132.37219 3.8401999 7.4013
-132.6992 3.8559999 7.276
-132.8107 3.8619001 7.2339001
-132.91701 3.8678 7.1940999
-133.24719 3.8803999 7.0636001
-133.35699 3.885 7.0207
-133.46291 3.8901 6.9801002
-133.64149 3.9026999 6.9162998
-133.8679 3.9130001 6.8288999
-133.98309 3.9198999 6.7862
-134.0515 3.931 6.7691998
-134.437 4.1518998 6.8580999
-134.6031 4.1571999 6.7912998
-134.6691 4.1622 6.7680998
-134.7874 4.1666999 6.7213998
-135.07851 4.2526999 6.6939001
-135.21761 4.3021002 6.6905999
-135.354 4.3585 6.6966
-136.94231 5.3636999 7.1742001
-137.06261 5.4088998 7.1740999
-137.1955 5.4537001 7.1680999
-137.4847 5.5609002 7.1662998
-138.0641 5.7761998 7.1634002
-135.96609 4.0102 6.0201001
-136.09129 4.0163999 5.9723001
-136.15981 4.0236001 5.9506001
-136.2341 4.0295 5.9249001
-137.01961 4.0678 5.6243
-137.49229 4.3232002 5.7153001
-137.72391 4.3466001 5.6408
-138.343 4.3724999 5.3990002
-138.42599 4.3850999 5.3772001
-138.72369 4.4057002 5.2705002
-138.60921 4.2628999 5.1538
-138.6492 4.1355 4.9871998
-138.883 4.1552 4.9074001
-139.1676 4.1659002 4.7948999
-139.2359 4.1683002 4.7676001
-139.3253 4.1750002 4.7361999
-139.39861 4.1817002 4.7118001
-139.4834 4.1873002 4.6810999
-139.9408 4.4113002 4.7420001
-140.0239 4.4176002 4.7129002
-140.1046 4.4211998 4.6816001
-140.181 4.4253998 4.6529002
-140.26151 4.4310999 4.6241999
-140.33299 4.4341998 4.5963998
-140.40491 4.4355001 4.5662999
-140.4234 4.2893 4.3871999
-140.93491 4.3311 4.2112999
-140.8495 4.2458 4.1490002
-141.0896 4.2586002 4.0584002
-141.1662 4.2628002 4.0296998
-141.25079 4.2628999 3.9926
-141.3364 4.2722998 3.9660001
-141.427 4.2779002 3.9326
-141.58009 4.2824001 3.8706999
-141.6701 4.2897 3.8397
-141.7364 4.2844 3.8043001
-141.89771 4.2915001 3.7418001
-141.9989 4.3073001 3.7156999
-142.09109 4.3109999 3.6796
-142.16611 4.3127999 3.6486001
-142.6909 4.5402999 3.6840999
-142.7701 4.5467 3.6566999
-142.95151 4.5558 3.5876999
-143.0358 4.5598998 3.5553
-143.1304 4.5669999 3.5221
-143.2018 4.5667 3.4904001
-143.1525 4.4994998 3.4333999
-143.16 4.4201002 3.3373001
-143.21001 4.3649998 3.2507999
-143.2831 4.3652 3.2190001
-143.7189 4.3772998 3.0416
-144.194 4.4099998 2.8710001
-144.2883 4.4099002 2.8294001
-144.39169 4.4232998 2.7995999
-144.6611 4.4291 2.6881001
-145.7285 4.9054999 2.776
-145.27901 4.6022 2.6189001
-145.2832 4.5250001 2.5267
-145.5338 4.4752998 2.3585
-145.6347 4.4811001 2.3209
-145.9352 4.4935002 2.2033999
-146.54111 4.5233002 1.9718
-146.64 4.5296998 1.9359
-146.7455 4.5279002 1.8875
-146.8412 4.5352998 1.8541
-146.94839 4.5359998 1.8077
-147.3701 4.5577998 1.6479
-148.4808 5.0188999 1.6989
-148.5798 5.0197001 1.6564
-148.3651 4.8298001 1.5287
-148.4639 4.8347998 1.4911
-148.5874 4.8421001 1.4454
-149.129 4.8622999 1.2309999
-149.2065 4.7171998 1.0271
-149.4884 4.6581998 0.83429998
-149.71629 4.6672001 0.7446
-128.6086 3.6547999 8.8062
-128.7411 3.6596 8.7533998
-128.834 3.6631999 8.7166004
-128.9321 3.6733 8.6851997
-129.4857 3.7030001 8.4759998
-130.25861 4.0029001 8.4861002
-130.35049 3.9988999 8.441
-130.4502 4.0050001 8.4042997
-130.6469 4.0177999 8.3325005
-131.14639 4.0769 8.1815996
-131.24831 4.0822001 8.1428003
-131.32651 3.9251001 7.9246998
-131.3304 3.8518 7.8372002
-131.34171 3.7879 7.7575002
-131.4393 3.7934 7.7210002
-131.7533 3.8085999 7.6005001
-131.86079 3.8167 7.5626001
-132.21609 3.8288 7.4201999
-132.4407 3.846 7.3413
-132.5459 3.8478 7.2969999
-132.98109 3.8713 7.1328001
-133.1003 3.8794 7.0897999
-133.7036 3.9037001 6.8523998
-134.5002 4.1535001 6.7934999
-134.97639 4.2484999 6.6947999
-137.3526 5.5486002 7.1682
-137.62331 5.6496 7.1671
-137.7751 5.7016001 7.1609998
-137.90759 5.7518001 7.1613002
-138.20621 5.8650999 7.1622
-135.5536 4.1099 6.2785001
-135.5509 4.0337 6.1905999
-135.5947 3.9905 6.1208
-135.7238 3.9956999 6.0700002
-135.8438 3.9983001 6.0201001
-136.3004 4.0310998 5.8572998
-136.3662 4.0331998 5.8308001
-136.4323 4.0373001 5.8065
-136.56239 4.0443001 5.7572999
-136.69411 4.0489001 5.7047
-136.823 4.0531001 5.6528001
-137.92551 4.3464999 5.5102
-138.15601 4.3722 5.4387999
-138.22729 4.3757 5.4115
-138.6407 4.3892002 5.2449999
-138.61411 4.2231002 5.0626998
-138.7459 4.1458001 4.9141998
-138.80991 4.1444998 4.8845
-138.9585 4.1546001 4.8309002
-139.03841 4.1651001 4.8080001
-140.46831 4.2309999 4.2550998
-140.5453 4.2333999 4.224
-140.7007 4.2372999 4.1601
-140.7747 4.2384 4.1286998
-140.9334 4.2481999 4.0704002
-142.8645 4.5472002 3.5694001
-143.3846 4.3688002 3.1315999
-143.46249 4.3659 3.0940001
-143.562 4.3737001 3.0592
-143.83459 4.3875999 2.9554999
-143.9203 4.3930998 2.9242001
-144.02541 4.3982 2.8838
-144.1162 4.4052 2.852
-144.4928 4.4236002 2.7077
-144.5773 4.4228001 2.6694
-145.6412 4.8989 2.7576001
-145.8252 4.9054999 2.6842
-145.2803 4.4745002 2.4203
-145.35989 4.4699998 2.3799
-145.46111 4.4755998 2.3419001
-145.7444 4.4864001 2.2298
-145.8382 4.4884 2.1908
-146.04201 4.4969001 2.1110001
-146.1591 4.5079002 2.0723
-146.2476 4.5088 2.0343001
-146.347 4.5152998 1.9982001
-146.45509 4.5180998 1.9538
-147.1877 4.5567002 1.6763
-147.2851 4.5584998 1.6355
-148.25771 4.8200998 1.513
-148.69859 4.8422999 1.3448
-148.8109 4.8484001 1.3025
-148.9104 4.8501 1.2606
-149.0152 4.8540001 1.219
-149.24451 4.8625998 1.128
-149.3145 4.8455 1.0773
-149.2135 4.6676998 0.9138
-149.3705 4.6462998 0.8197
-149.5981 4.6592002 0.73460001
-149.84599 4.6735001 0.64200002
-150.07471 4.6820998 0.55150002
-151.6373 4.9713998 0.2015
-151.9738 4.8797998 -0.0539
-128.5336 3.6507001 8.8013
-129.116 3.6738 8.5711002
-129.2159 3.6831999 8.5380001
-129.31509 3.6942 8.507
-129.6485 3.7119 8.3804998
-129.7834 3.7151999 8.3247995
-130.1683 3.9927001 8.4792995
-130.5432 4.0334001 8.3613005
-130.7556 4.0521002 8.2894001
-130.8568 4.0588002 8.2524996
-130.94141 4.0549998 8.2108002
-131.0437 4.0595999 8.1709003
-131.1572 4.0404 8.0984001
-131.2455 4.0339999 8.0518999
-131.3486 4.0749002 8.0542002
-131.51131 3.8011 7.6623001
-131.6172 3.8046999 7.6198001
-131.9191 3.8146999 7.4981999
-132.02631 3.8227 7.4601002
-132.14011 3.8309 7.4196
-132.2869 3.8343 7.3586998
-132.6199 3.8578 7.2392001
-132.722 3.8568001 7.1929002
-132.8316 3.8636999 7.1525998
-133.1619 3.8796999 7.0254998
-133.27521 3.8848 6.9815001
-133.3755 3.8840001 6.9362001
-133.49609 3.8934 6.8940001
-133.7851 3.9119999 6.7881999
-133.89729 3.9159999 6.7433
-134.0116 3.9251001 6.7034998
-134.40739 4.1521001 6.7940001
-134.5638 4.1511002 6.7238002
-134.63451 4.1616998 6.7049999
-134.7256 4.1827998 6.6894002
-134.8493 4.2297001 6.6896
-135.1098 4.3306999 6.6926999
-135.24451 4.3821998 6.6933999
-136.83501 5.3952999 7.1754999
-136.95689 5.4373999 7.171
-137.09399 5.4872999 7.1687999
-137.224 5.5349002 7.1669998
-137.5164 5.6424999 7.1637001
-138.0912 5.8593998 7.1634002
-135.92999 4.0082002 5.9537001
-136.05611 4.0163002 5.9074998
-136.1245 4.0229998 5.8850999
-136.1904 4.0237999 5.8569999
-136.9034 4.0587001 5.5829
-136.97211 4.0633001 5.5581002
-137.0405 4.0695 5.5351
-137.52521 4.3281999 5.6234999
-137.6221 4.3435001 5.5987
-137.7587 4.3506999 5.5468001
-138.0081 4.3888001 5.4812002
-138.4476 4.3804998 5.2775002
-138.5249 4.3926001 5.2575002
-138.7195 4.3891001 5.1675
-138.62199 4.1423001 4.9221001
-139.11749 4.1627002 4.7272
-139.2061 4.1722999 4.6993999
-139.2739 4.1718998 4.6689
-139.343 4.1714001 4.6378002
-139.42419 4.1806998 4.6128001
-139.50281 4.1870999 4.5857
-139.98241 4.4205999 4.6469002
-140.0666 4.4225001 4.6118999
-140.2084 4.4236002 4.5506001
-140.28191 4.4316001 4.5275998
-140.356 4.4303999 4.4935002
-140.4465 4.4412999 4.4663
-140.5137 4.4380002 4.4327002
-140.5956 4.2470999 4.1733999
-141.03349 4.2554002 3.9898
-141.11549 4.2582002 3.9568999
-141.21359 4.2681999 3.9252999
-141.28709 4.2693 3.8942001
-141.3671 4.2725 3.8626001
-141.4505 4.2786002 3.8329
-141.53419 4.2853999 3.8039
-141.6217 4.2876 3.7678001
-141.7717 4.2873998 3.7014
-141.8528 4.296 3.6756999
-141.94431 4.3023 3.6426001
-142.02969 4.3052001 3.6083
-142.1162 4.3098001 3.5755
-142.2081 4.3189001 3.5455999
-142.70911 4.5395999 3.5824001
-142.9761 4.5563998 3.4841001
-143.0721 4.5609999 3.4473
-143.2325 4.5655999 3.3817999
-143.1566 4.4032001 3.2254
-143.2345 4.3660998 3.1477001
-143.6646 4.3765001 2.9700999
-143.7652 4.3824 2.9326
-143.95779 4.3973999 2.8650999
-144.25459 4.4211001 2.7618001
-144.31911 4.4116001 2.7221999
-144.42419 4.421 2.6868999
-145.7565 4.9039998 2.6633
-145.2847 4.5478001 2.4552
-145.5714 4.4794002 2.2488
-145.67709 4.4812999 2.2042999
-145.8752 4.4896998 2.1266999
-145.9617 4.4935999 2.0929999
-146.38651 4.5201998 1.9366
-146.5667 4.5218 1.859
-146.6844 4.5286002 1.8150001
-146.78281 4.5331001 1.7769001
-146.89391 4.5398998 1.7357
-146.9865 4.5421 1.6975
-148.4162 5.0146999 1.6188
-148.0726 4.8214002 1.5445
-148.16141 4.8144999 1.4973
-148.3876 4.8249998 1.4098001
-148.5105 4.8379002 1.3706
-148.6066 4.8372002 1.3273
-149.06129 4.8571 1.1499
-149.14751 4.8568001 1.1115
-149.2083 4.7909999 1.0078
-149.1994 4.7409 0.95310003
-149.28641 4.6496 0.80809999
-149.5274 4.6620998 0.71630001
-149.6348 4.6605 0.66710001
-149.7507 4.6697001 0.62660003
-149.9865 4.6766 0.53070003
-150.11189 4.6862998 0.48660001
-151.5036 4.9530001 0.1842
-128.4516 3.6443 8.7968998
-128.6394 3.6563001 8.7277002
-128.76781 3.6559 8.6703997
-128.86839 3.6684 8.6406002
-128.9532 3.6702001 8.6050997
-129.3727 3.6956 8.4492998
-129.4651 3.6963999 8.4091997
-129.5668 3.7068 8.3764
-129.7067 3.7128999 8.3216
-130.58681 4.0205002 8.2917995
-130.6696 4.0131998 8.2466002
-130.87691 4.0278001 8.1718998
-130.96741 4.0281 8.1322002
-131.07491 4.0366001 8.0945997
-131.3663 3.7904 7.678
-131.67821 3.8046 7.5565
-131.7865 3.8141999 7.5198002
-132.35609 3.8396001 7.2975998
-132.4704 3.8471 7.2557998
-132.90109 3.8689001 7.0907001
-133.0096 3.8710001 7.0451002
-133.57069 3.8987 6.8292999
-133.6796 3.9017 6.7845998
-134.47791 4.1526999 6.7248001
-134.9975 4.3196998 6.6900001
-136.7047 5.3787999 7.1724
-137.40491 5.6409998 7.1690998
-137.6666 5.7364998 7.1648002
-137.82269 5.7933002 7.1620998
-137.9763 5.8554001 7.1666999
-138.25369 5.9565001 7.1620998
-138.41611 6.0179 7.1620998
-135.5616 3.9899001 6.0552001
-135.6263 3.9899001 6.0265002
-135.7565 3.9986999 5.9791999
-136.2751 4.0314999 5.7881999
-136.3997 4.0345998 5.7365999
-136.52991 4.0447998 5.691
-136.6597 4.0496001 5.6392002
-136.78349 4.0544 5.5900002
-137.8194 4.3414998 5.4672999
-138.0303 4.355 5.3896999
-138.12801 4.3744998 5.3692999
-138.2457 4.3699002 5.3119001
-138.3251 4.3818998 5.2907
-138.6084 4.2028999 4.9563999
-138.7003 4.1420002 4.8446002
-138.7762 4.1452999 4.8147998
-138.84821 4.1522002 4.7909999
-138.91521 4.1531 4.7624998
-138.9944 4.1578002 4.7329001
-140.43069 4.3456001 4.3171
-140.59 4.3196001 4.2161999
-140.5128 4.2322998 4.1483002
-140.6557 4.2340002 4.0871
-140.72169 4.2350998 4.0591998
-140.7991 4.2367001 4.0268002
-140.8969 4.2497001 3.9986999
-142.817 4.5458002 3.4955001
-142.9057 4.5542998 3.4661
-143.14461 4.4710999 3.2632999
-143.343 4.3713002 3.0589001
-143.435 4.3716002 3.0186
-143.513 4.3745999 2.9876001
-143.8735 4.3888998 2.8448999
-144.0659 4.4021001 2.7751999
-144.15379 4.4077001 2.7428
-144.5322 4.4253001 2.5961001
-144.6114 4.4238 2.5592999
-145.6682 4.8962998 2.6440001
-145.8679 4.9061999 2.5671999
-145.27451 4.4945002 2.3485999
-145.3996 4.4677 2.2620001
-145.5022 4.4766002 2.227
-145.8009 4.4882998 2.1085999
-146.0882 4.5032001 1.9989001
-146.18269 4.5029001 1.9568
-146.3038 4.5162001 1.9187
-146.4915 4.5174999 1.8372
-147.11459 4.5500998 1.5998
-147.2169 4.5528998 1.5578001
-147.3452 4.5651999 1.5154001
-147.9823 4.8123999 1.5225
-148.3027 4.8246999 1.3952
-148.7249 4.8375001 1.2234
-148.84151 4.8469 1.1828001
-148.9603 4.8477001 1.1312
-149.1833 4.8565998 1.043
-149.27631 4.8590999 1.0048
-149.2088 4.6908998 0.83810002
-149.7845 4.6689 0.55779999
-149.88989 4.6753998 0.51889998
-151.5316 4.9524002 0.1164
-128.3219 3.6280999 8.8023996
-128.5574 3.6491001 8.7226
-128.69501 3.6570001 8.6709003
-129.0125 3.6719 8.5474005
-129.15781 3.6846001 8.4979
-129.2459 3.6877999 8.4625998
-130.2487 4.0321999 8.4202995
-130.3497 4.0047998 8.3435001
-130.45 4.0105 8.3056002
-130.7392 4.0177999 8.1861
-131.3548 4.0613999 7.9640999
-131.3269 3.9287 7.8214002
-131.32809 3.8605001 7.7412
-131.42461 3.7892001 7.6149998
-131.5367 3.7973001 7.5748
-131.8468 3.8144 7.4573998
-131.9563 3.8237 7.4197001
-132.0616 3.8262 7.3758998
-132.1651 3.8297999 7.3341999
-132.532 3.849 7.1939998
-132.64169 3.8538001 7.151
-132.74609 3.858 7.1096001
-133.07809 3.8757999 6.9832001
-133.18491 3.8766999 6.9369001
-133.29379 3.8822 6.8951001
-133.4064 3.8859 6.8495002
-133.75571 3.9105999 6.7234998
-133.92999 3.9242001 6.6622
-134.0482 3.9301 6.6166
-134.76891 4.2684999 6.6925001
-134.8903 4.3122001 6.6897001
-136.58051 5.3660002 7.1712999
-136.8726 5.4770002 7.1715999
-136.99741 5.5237999 7.1708002
-137.1394 5.5745001 7.1671
-137.2682 5.6245999 7.1684999
-137.5499 5.7259998 7.1622
-138.12869 5.9454999 7.1620002
-138.3045 6.0139999 7.1641002
-138.59309 6.1191001 7.1589999
-135.55141 4.1185999 6.1704998
-135.82761 3.9999001 5.9094
-135.8936 4.0054998 5.8866
-136.0155 4.0123 5.8406
-136.0873 4.0158 5.8129001
