ply
format ascii 1.0
comment Generated by the CGAL library
element vertex 602
property double x
property double y
property double z
property uchar red
property uchar green
property uchar blue
property float scalar_GpsTime
property float scalar_Intensity
property double nx
property double ny
property double nz
end_header
-120.161 5.9245 -4.2721 142 142 150 36.6713 12079 -0.00430283 0.0437348 0.999034 
-121.501 7.4739 -4.2856 66 73 84 36.6715 10537 -0.00687716 -0.00276334 0.999973 
-123.973 7.7241 -2.2221 110 110 117 36.6717 22359 0.998771 -0.048727 0.00906656 
-123.987 7.4716 -2.0069 111 106 109 36.6718 22616 0.998753 -0.0487621 0.0106916 
-120.852 6.6986 -4.277 153 152 157 36.6754 6425 -0.00434408 -0.0519346 0.998641 
-122.456 8.039 -3.8852 25 25 3 36.6755 6939 0.80428 0.592262 0.0485705 
-123.9 9.0088 -3.3428 88 93 99 36.6756 22359 0.998791 -0.0490577 -0.00322187 
-124.013 6.9482 -1.5876 116 113 116 36.6758 22359 0.998864 -0.0476459 0.00123269 
-122.247 8.2712 -4.2846 37 42 54 36.6795 15163 -0.0338644 0.179901 0.983102 
-122.701 8.795 -4.2908 52 50 60 36.6795 13621 -0.00056113 0.00815348 0.999967 
-123.893 9.2692 -3.5838 81 87 95 36.6796 22873 0.998678 -0.0489666 -0.0156169 
-123.923 8.5779 -3.0018 96 100 106 36.6797 22359 0.998897 -0.0464315 0.00703982 
-123.952 8.0483 -2.5495 103 107 113 36.6797 21331 0.998767 -0.0487878 0.00914536 
-123.744 9.9616 -4.3018 65 67 76 36.6836 15677 0.718768 -0.122081 0.684448 
-120.613 6.3905 -4.319 151 154 163 36.6914 1028 -0.0087691 -0.0115254 0.999895 
-121.049 6.8354 -4.2813 116 131 142 36.6914 11565 -0.00840171 -0.025654 0.999636 
-124.033 6.5791 -1.3655 113 112 111 36.6918 22616 0.998725 -0.0504779 -0.000726561 
-121.748 7.6007 -4.2852 62 70 79 36.6955 11822 0.0405471 -0.0800047 0.995969 
-123.592 9.6899 -4.3014 63 69 80 36.6956 10280 0.242153 -0.0121769 0.970162 
-123.869 9.8076 -4.1449 72 75 79 36.6956 22359 0.861188 -0.0587845 0.504876 
-123.911 8.7753 -3.2729 90 94 101 36.6956 22359 0.99888 -0.0472886 -0.00156603 
-123.94 8.2785 -2.8456 99 104 110 36.6957 22359 0.99887 -0.0465492 0.00961634 
-120.387 6.0276 -4.2821 144 145 158 36.7033 8995 -0.017313 0.0625515 0.997892 
-123.89 9.3718 -3.8271 77 82 90 36.7036 22873 0.998091 -0.0470571 0.0399979 
-123.965 7.8121 -2.4948 107 106 112 36.7037 23130 0.998675 -0.0505446 0.00963279 
-123.46 9.4477 -4.3042 62 70 78 36.7076 14135 -0.0373319 0.0175894 0.999148 
-123.88 9.5845 -4.0362 76 79 81 36.7076 21588 0.967786 -0.0497424 0.246813 
-123.996 7.2265 -2.0169 109 112 111 36.7078 21845 0.998915 -0.045884 0.00794658 
-121.285 6.9808 -4.284 69 76 87 36.7114 12336 -0.0137742 -0.00774695 0.999875 
-122.018 7.8039 -4.2926 54 60 68 36.7115 11822 0.0689647 -0.28541 0.955921 
-123.905 9.0238 -3.585 84 87 93 36.7116 23387 0.998724 -0.0485538 -0.0139242 
-123.986 7.482 -2.2577 110 111 111 36.7117 22102 0.998916 -0.045724 0.00869815 
-124.009 6.9894 -1.8368 111 112 113 36.7118 23130 0.998757 -0.0493143 0.00720676 
-121.506 7.2017 -4.2849 61 71 80 36.7154 9252 -0.00865256 -0.0035195 0.999956 
-122.353 7.7934 -4.0053 36 39 47 36.7155 1799 0.557118 0.686969 -0.466576 
-124.024 6.7091 -1.6184 115 114 116 36.7158 23130 0.99867 -0.0515339 0.00177711 
-120.166 5.6661 -4.2554 139 142 148 36.7193 12079 -0.00750009 0.0447592 0.99897 
-123.313 9.1823 -4.2994 65 73 79 36.7195 14906 0.0114831 0.0153421 0.999816 
-123.953 8.0435 -2.7955 100 105 109 36.7197 22616 0.998845 -0.0461341 0.0134121 
-120.844 6.455 -4.3096 77 94 86 36.7234 1799 -0.00557275 -0.0109517 0.999924 
-123.923 8.5349 -3.2492 93 96 104 36.7236 22616 0.998885 -0.047134 -0.00269635 
-123.933 8.3493 -3.0889 94 100 104 36.7237 22616 0.99886 -0.0470201 0.00827057 
-124.043 6.3374 -1.3454 116 113 115 36.7238 21845 0.997528 -0.0683132 0.0164377 
-120.607 6.1442 -4.2861 150 148 157 36.7274 15677 -0.00578432 0.0562942 0.998397 
-121.703 7.3408 -4.2856 64 71 83 36.7275 10023 -0.0105358 -0.00187814 0.999943 
-122.794 8.5469 -4.2974 56 59 65 36.7275 15934 -0.00564495 -0.00125329 0.999983 
-123.16 8.9205 -4.3014 66 69 79 36.7315 14135 -0.00390887 0.0160019 0.999864 
-123.902 9.1224 -3.8042 78 82 89 36.7316 21845 0.998861 -0.047129 -0.00739209 
-123.914 8.7895 -3.5197 87 91 99 36.7316 22359 0.998652 -0.0497144 -0.0149509 
-123.819 9.6117 -4.3079 67 70 78 36.7356 18247 0.47429 -0.0419183 0.87937 
-123.977 7.5656 -2.4843 106 108 112 36.7357 22359 0.99878 -0.0484062 0.00979939 
-121.058 6.5631 -4.2851 105 117 127 36.7394 15420 -0.00954782 -0.0191399 0.999771 
-122.668 8.3202 -4.2978 52 54 61 36.7395 16705 -0.103147 0.172102 0.979664 
-123.021 8.6928 -4.2906 62 68 76 36.7395 15677 -0.00966544 0.00824006 0.999919 
-120.384 5.7857 -4.2627 142 142 152 36.7433 8224 -0.00568574 0.0497394 0.998746 
-121.994 7.556 -4.2912 63 69 84 36.7435 14649 0.0040089 -0.19986 0.979816 
-122.265 7.8029 -4.2543 33 40 41 36.7435 0 0.0246009 -0.319428 0.947291 
-123.893 9.3402 -4.0743 78 79 85 36.7436 22359 0.970003 -0.0115707 0.242819 
-123.963 7.8076 -2.7464 104 107 115 36.7437 22359 0.998774 -0.0480156 0.012007 
-122.475 8.0357 -4.2833 43 52 56 36.7475 12593 -0.0681022 0.0653353 0.995537 
-123.554 9.2228 -4.3056 64 70 80 36.7476 15420 0.0856565 0.0133656 0.996235 
-123.943 8.1116 -3.0407 98 101 108 36.7477 22873 0.998865 -0.0460753 0.0120472 
-123.994 7.2317 -2.268 109 108 112 36.7477 21845 0.998825 -0.0477969 0.00797411 
-124.038 6.4692 -1.5978 116 114 117 36.7478 22359 0.998762 -0.0497172 0.00171408 
-127.759 4.1758 3.6092 121 119 118 36.7483 16448 -0.562671 -0.417044 0.713775 
-121.262 6.7099 -4.2844 73 77 86 36.7514 15934 -0.0111949 -0.032133 0.999421 
-124.009 6.9954 -2.0833 112 110 114 36.7518 22102 0.998769 -0.0491459 0.00673546 
-124.021 6.7489 -1.868 111 111 113 36.7518 22102 0.998711 -0.0502223 0.00728514 
-121.523 6.9397 -4.2842 65 72 84 36.7594 11051 -0.0156484 -0.0142409 0.999776 
-123.914 8.8795 -3.782 83 87 96 36.7596 22616 0.998677 -0.0508356 -0.00775782 
-123.929 8.5459 -3.4914 89 93 101 36.7596 23387 0.998654 -0.0498572 -0.0143299 
-120.848 6.2005 -4.2855 153 151 162 36.7634 13364 0.00579964 0.054955 0.998472 
-123.419 8.9477 -4.3022 66 74 82 36.7635 16191 -0.00818272 0.00262865 0.999963 
-123.78 9.3357 -4.3068 69 71 78 36.7636 17476 0.573278 -0.0504524 0.817806 
-120.166 5.4148 -4.2496 141 149 155 36.7673 12336 0.00324409 0.0381231 0.999268 
-120.598 5.8956 -4.2702 148 151 159 36.7674 11308 5.18215e-05 0.0532166 0.998583 
-123.932 8.3089 -3.3421 94 96 105 36.7676 22359 0.998867 -0.0467243 -0.00908092 
-121.723 7.0818 -4.2879 63 69 71 36.7715 10023 -0.0118365 -0.0124597 0.999852 
-123.903 9.0952 -4.0503 78 83 87 36.7716 23130 0.944127 -0.0653515 0.323037 
-123.957 7.8744 -2.9821 102 105 111 36.7717 22102 0.998758 -0.0487497 0.0102438 
-124.055 6.1087 -1.42 115 113 114 36.7718 22873 0.997849 -0.0634521 0.0164779 
-121.94 7.2836 -4.2857 60 67 76 36.7755 9252 -0.0134782 -0.00417233 0.9999 
-122.911 8.3202 -4.2996 61 67 75 36.7755 13878 -0.0031688 -0.0122855 0.99992 
-123.27 8.6985 -4.3004 67 70 74 36.7755 15677 -0.0153147 -0.00345861 0.999877 
-123.975 7.5673 -2.7336 106 108 113 36.7757 22873 0.99877 -0.0483588 0.0109858 
-123.988 7.3165 -2.5122 106 109 110 36.7757 22616 0.998816 -0.0481417 0.00703041 
-128.016 4.2017 3.614 115 108 109 36.7803 17476 -0.0947112 -0.210731 0.972945 
-122.248 7.5649 -4.2933 63 69 79 36.7835 14906 0.00344403 -0.213513 0.976934 
-122.717 8.0643 -4.3012 59 65 75 36.7835 12336 -0.190565 0.0237601 0.981387 
-123.923 8.6407 -3.728 85 88 100 36.7836 22873 0.998667 -0.0508892 -0.00858076 
-120.375 5.5439 -4.2537 148 149 162 36.7873 11565 -0.00564684 0.0399411 0.999186 
-123.131 8.4648 -4.2985 67 71 82 36.7875 14906 -0.0123541 -0.00632978 0.999904 
-124.038 6.5048 -1.8572 112 114 119 36.7878 21588 0.99862 -0.0522389 0.00547935 
-121.084 6.3201 -4.3047 156 157 173 36.7914 2570 0.0138709 0.0161797 0.999773 
-122.5 7.7823 -4.2982 59 66 77 36.7915 14649 -0.12057 -0.306798 0.944107 
-123.669 9.0031 -4.3051 67 72 82 36.7916 15677 0.248611 -0.0159253 0.968472 
-123.945 8.0719 -3.2794 95 99 104 36.7916 22616 0.998846 -0.0479689 -0.00228466 
-124.049 6.2251 -1.6342 117 116 118 36.7918 22873 0.998474 -0.0542394 0.0103953 
-124.004 7.0037 -2.3517 110 111 115 36.7957 22359 0.998751 -0.0497619 0.00458579 
-124.019 6.7546 -2.1288 112 109 111 36.7958 21588 0.998564 -0.0531445 0.00675125 
-121.507 6.6992 -4.2922 74 78 90 36.7994 11822 -0.0159502 -0.0213519 0.999645 
-123.916 8.8481 -4.0331 80 82 91 36.8036 22873 0.977317 -0.0226217 0.21057 
-120.835 5.9473 -4.2766 144 149 158 36.8074 12079 -0.00430139 0.0602657 0.998173 
-121.313 6.4636 -4.2988 43 62 56 36.8074 514 0.00253927 -0.0032067 0.999992 
-123.9 9.122 -4.3045 73 74 84 36.8076 22616 0.686319 -0.0254094 0.726857 
-123.938 8.3233 -3.5955 89 93 100 36.8076 23130 0.998757 -0.0474204 -0.0153528 
-123.967 7.6245 -2.9783 102 104 112 36.8077 23387 0.998659 -0.0503649 0.0119785 
-122.181 7.3192 -4.2913 59 69 80 36.8115 10280 -0.0131674 -0.0127057 0.999833 
-123.517 8.7012 -4.3057 66 73 81 36.8116 16448 0.0529576 0.0107506 0.998539 
-128.281 4.2332 3.6157 94 94 99 36.8123 16962 -0.0270217 -0.185019 0.982363 
-120.601 5.643 -4.2559 143 145 155 36.8153 15420 -0.00921462 0.0380726 0.999232 
-120.163 5.1594 -4.2398 139 143 149 36.8193 10537 0.0136674 0.0310319 0.999425 
-121.733 6.8146 -4.292 68 72 86 36.8195 9766 -0.0177212 -0.0209414 0.999624 
-122.967 8.0795 -4.3022 67 72 81 36.8195 14649 -0.0177468 -0.00383904 0.999835 
-123.955 7.8321 -3.238 96 102 111 36.8197 21845 0.998822 -0.0484906 -0.00183854 
-123.986 7.3304 -2.7841 105 107 109 36.8197 21845 0.998658 -0.0509506 0.00924895 
-121.955 7.0139 -4.291 65 73 83 36.8235 10537 -0.0187174 -0.0206985 0.999611 
-123.389 8.4793 -4.3027 67 74 79 36.8236 17733 -0.0175138 -0.00745441 0.999819 
-124.001 7.079 -2.5816 106 108 114 36.8237 21588 0.998586 -0.0526996 0.00695604 
-121.054 6.0669 -4.2793 140 144 147 36.8274 8481 4.01506e-05 0.0573731 0.998353 
-122.493 7.5402 -4.2979 66 74 82 36.8275 12850 -0.130857 -0.079603 0.9882 
-122.756 7.8085 -4.3001 64 74 83 36.8275 11051 -0.122564 -0.00667643 0.992438 
-123.169 8.2272 -4.3019 65 73 84 36.8275 14135 -0.0138036 -0.00868958 0.999867 
-123.929 8.6137 -3.9768 84 87 93 36.8276 23387 0.983259 -0.0815172 0.162962 
-124.045 6.2646 -1.8715 115 114 117 36.8278 21845 0.998768 -0.0494073 0.00452784 
-131.796 4.0566 6.6988 78 78 84 36.8283 20560 -0.0713649 -0.995658 -0.0597703 
-123.938 8.4127 -3.8231 86 89 95 36.8316 22616 0.998769 -0.0493181 -0.00527329 
-123.949 8.0764 -3.5265 94 95 101 36.8316 22616 0.998773 -0.0457573 -0.0189448 
-124.033 6.5113 -2.1157 110 112 115 36.8318 21588 0.998751 -0.0497396 0.00468212 
-124.062 5.9817 -1.6375 118 116 119 36.8318 22873 0.997756 -0.0643104 0.0186348 
-123.769 8.7813 -4.3093 69 73 82 36.8356 15677 0.536301 -0.00144096 0.844025 
-120.373 5.2819 -4.2451 143 150 159 36.8393 11308 -0.00587056 0.032336 0.99946 
-124.02 6.7594 -2.3848 110 110 115 36.8397 22102 0.998597 -0.0527498 0.00463714 
-128.541 4.2641 3.614 115 120 129 36.8443 18504 0.0285526 -0.135964 0.990302 
-121.297 6.2106 -4.2875 148 150 163 36.8474 13364 -0.00558971 0.0391843 0.999216 
-120.837 5.7015 -4.2598 141 146 151 36.8514 12336 -0.00413728 0.0386477 0.999244 
-121.561 6.4655 -4.2998 41 56 65 36.8514 771 -0.0143464 0.00544023 0.999882 
-123.982 7.3842 -3.0243 103 105 108 36.8517 22359 0.998589 -0.0522663 0.00940151 
-132.059 4.1147 6.7012 77 79 80 36.8523 21331 -0.306608 -0.945359 0.110855 
-122.193 7.0612 -4.2945 64 75 86 36.8555 11308 -0.0184718 -0.0178873 0.999669 
-122.426 7.2952 -4.298 66 71 82 36.8555 13107 -0.016407 -0.00752636 0.999837 
-123.97 7.5914 -3.2371 100 102 111 36.8557 22359 0.998687 -0.0512208 -0.000143451 
-120.582 5.4026 -4.2528 148 153 158 36.8593 11051 -0.00537037 0.0321623 0.999468 
-123.647 8.4861 -4.3094 69 74 85 36.8596 16191 0.184316 -0.0155707 0.982744 
-123.957 7.8357 -3.4833 96 98 107 36.8596 22616 0.998553 -0.0512445 -0.0163114 
-122.735 7.5493 -4.2978 68 78 87 36.8635 15163 -0.0114474 -0.00232238 0.999932 
-122.997 7.8105 -4.3018 67 78 89 36.8635 16191 -0.0125106 -0.00142145 0.999921 
-123.413 8.2231 -4.3052 69 76 86 36.8636 15420 -0.0163005 -0.0099746 0.999817 
-123.952 8.1712 -3.8018 87 91 95 36.8636 22102 0.998984 -0.0445111 -0.00709955 
-123.999 7.0889 -2.8249 105 104 109 36.8637 22102 0.998709 -0.0503148 0.00700716 
-126.778 3.7888 2.3995 64 60 75 36.8642 10794 -0.0175023 -0.999653 -0.0196871 
-123.184 7.9697 -4.3043 70 76 84 36.8675 14135 -0.0151091 -0.00684192 0.999862 
-123.925 8.5999 -4.2216 80 82 90 36.8676 23387 0.727933 -0.0458324 0.684115 
-120.164 4.9143 -4.2318 140 148 158 36.8713 10794 0.0191253 0.0335931 0.999253 
-121.053 5.8224 -4.2679 144 147 156 36.8714 8995 -0.00392874 0.0405533 0.99917 
-121.779 6.5695 -4.3018 62 66 74 36.8715 17990 -0.0136737 -0.0041662 0.999898 
-121.967 6.7497 -4.2983 76 82 92 36.8715 9252 -0.0197828 -0.0218954 0.999565 
-124.013 6.8388 -2.6419 107 110 115 36.8717 22102 0.998558 -0.0533298 0.00608282 
-124.046 6.2627 -2.1135 111 112 118 36.8718 21588 0.998723 -0.0499587 0.00755495 
-124.06 6.0248 -1.8952 113 112 114 36.8718 22359 0.998796 -0.0488286 0.00465984 
-132.299 4.1723 6.7048 103 113 118 36.8723 20817 0.277995 0.588352 -0.759316 
-123.937 8.3955 -4.0842 82 86 91 36.8756 22616 0.943511 -0.0982324 0.316446 
-124.03 6.5172 -2.371 111 110 113 36.8757 21845 0.998606 -0.0527096 0.00261842 
-128.786 4.2691 3.614 138 144 154 36.8763 18247 0.0718707 -0.18823 0.979492 
-121.275 5.9679 -4.2783 146 145 153 36.8874 8224 4.66182e-05 0.0515909 0.998668 
-123.959 7.9339 -3.7366 91 94 102 36.8876 21845 0.998959 -0.0448506 -0.00829386 
-124.07 5.7701 -1.7517 117 116 119 36.8878 21331 0.997141 -0.072629 0.0208488 
-120.375 5.0337 -4.2351 142 144 151 36.8913 9509 -0.00613118 0.0326158 0.999449 
-121.541 6.2158 -4.2894 82 94 105 36.8914 13621 0.00141632 0.0404248 0.999182 
-122.671 7.3132 -4.2999 66 73 83 36.8915 12079 -0.0113278 -0.0087678 0.999897 
-132.553 4.2254 6.719 106 114 124 36.8923 22102 0.294548 -0.324423 -0.898883 
-123.994 7.1418 -3.0609 102 105 110 36.8957 22102 0.998624 -0.0521763 0.0052774 
-120.825 5.4535 -4.2576 150 156 164 36.8994 18761 -0.00757711 0.0293116 0.999542 
-122.444 7.0494 -4.3017 66 73 81 36.8995 12336 -0.0149376 -0.0158441 0.999763 
-122.989 7.5702 -4.3017 70 80 90 36.8995 14906 -0.0149104 -0.00332612 0.999883 
-123.672 8.2311 -4.3099 66 76 88 36.8996 15934 0.174911 -0.0146564 0.984475 
-123.971 7.5913 -3.4976 94 99 106 36.8996 22873 0.998569 -0.0512048 -0.0154169 
-123.979 7.3475 -3.2763 100 101 108 36.8997 21588 0.998541 -0.0538681 -0.00369179 
-128.118 3.9998 3.1334 99 103 108 36.9002 19789 -0.087195 -0.459381 0.883949 
-122.214 6.809 -4.3033 72 79 92 36.9035 11822 -0.0158636 -0.0227375 0.999616 
-123.426 7.9697 -4.3092 70 77 88 36.9035 14135 -0.0152402 -0.00955397 0.999838 
-124.028 6.5983 -2.6006 110 111 114 36.9037 22102 0.998518 -0.0540553 0.00630155 
-123.95 8.1544 -4.0578 84 90 94 36.9076 22359 0.971974 -0.0689622 0.224745 
-129.078 4.3074 3.6143 141 146 153 36.9082 16448 0.0843738 0.0141677 0.996333 
-120.585 5.1529 -4.2419 147 148 159 36.9113 10537 -0.0119056 0.03458 0.999331 
-123.233 7.7306 -4.3063 75 81 91 36.9115 13621 -0.0195805 -0.00438525 0.999799 
-124.009 6.8509 -2.884 105 107 110 36.9117 21845 0.998534 -0.0529187 0.0114105 
-124.044 6.2759 -2.3698 112 115 118 36.9157 21331 0.998823 -0.0484918 0.000963267 
-124.056 6.0215 -2.1352 113 112 115 36.9158 22102 0.998787 -0.0491393 0.00313872 
-123.982 3.9548 -0.373 111 97 88 36.916 19275 0.494631 -0.213126 -0.842566 
-121.039 5.5638 -4.2599 144 148 156 36.9194 10537 -0.00714072 0.0342435 0.999388 
-121.773 6.2982 -4.2987 69 78 85 36.9194 4369 -0.0085147 0.0393995 0.999187 
-123.902 8.3168 -4.3131 72 74 82 36.9196 16191 0.655089 -0.0518452 0.753771 
-122.021 6.5143 -4.3034 49 53 61 36.9235 1542 -0.0117258 0.00771923 0.999901 
-123.972 7.6877 -3.7232 92 95 102 36.9236 22873 0.998766 -0.048688 -0.00981416 
-132.556 4.2473 6.4511 106 113 120 36.9243 17476 0.851474 0.347243 -0.392956 
-132.799 4.2254 6.6726 106 113 126 36.9243 15934 -0.0730752 0.100374 -0.992263 
-120.161 4.6662 -4.2263 140 148 156 36.9273 19532 0.0167099 0.0336867 0.999293 
-122.916 7.3277 -4.3027 70 78 87 36.9275 13364 -0.0118171 -0.00802404 0.999898 
-124.069 5.8087 -2.0013 115 116 118 36.9278 22873 0.997886 -0.0635986 0.013349 
-121.518 5.9723 -4.2778 96 107 115 36.9314 9509 -0.00134226 0.0500096 0.998748 
-123.961 7.9088 -3.9766 87 92 97 36.9316 22873 0.981167 -0.0423104 0.188469 
-128.389 4.0226 3.1388 115 120 131 36.9322 19789 0.36131 -0.654425 0.664216 
-121.254 5.6891 -4.2632 147 143 148 36.9354 12336 -0.00271864 0.0383841 0.999259 
-122.689 7.0675 -4.3032 71 78 87 36.9355 10794 -0.0086021 -0.0148385 0.999853 
-123.669 7.9894 -4.313 70 76 88 36.9356 13621 0.286528 0.0164986 0.95793 
-129.336 4.3351 3.6178 139 148 160 36.9362 16448 0.0678436 0.0329858 0.997151 
-120.372 4.7928 -4.2253 132 141 139 36.9433 11051 -0.00504295 0.0320491 0.999474 
-123.987 7.3498 -3.5298 97 100 107 36.9436 22616 0.998567 -0.0515273 -0.0144601 
-123.992 7.1083 -3.3108 100 101 104 36.9436 22873 0.99872 -0.0503051 -0.00517679 
-122.463 6.7892 -4.3056 73 80 88 36.9475 8224 -0.0116281 -0.00863267 0.999895 
-123.221 7.489 -4.3074 70 77 88 36.9475 14135 -0.018907 -0.00413102 0.999813 
-123.475 7.7285 -4.3124 71 78 88 36.9475 15420 0.0384826 -0.0154352 0.99914 
-124.005 6.9208 -3.1559 102 104 110 36.9477 22359 0.998596 -0.0529489 0.00159848 
-124.024 6.6017 -2.8559 107 107 115 36.9477 22102 0.99848 -0.0542397 0.00975718 
-124.039 6.3548 -2.6229 109 111 115 36.9477 21074 0.998637 -0.0520772 0.00344813 
-120.823 5.1957 -4.2468 141 147 154 36.9514 12593 -0.0094278 0.0326733 0.999422 
-122.266 6.5674 -4.3101 52 52 55 36.9555 17990 -0.0122126 0.00773911 0.999895 
-132.805 4.223 6.4268 107 114 125 36.9563 15677 0.862581 -0.489359 -0.128383 
-121.762 6.0522 -4.2798 66 74 81 36.9594 11822 -0.00371695 0.0525922 0.998609 
-123.906 8.0441 -4.3128 71 76 86 36.9596 18761 0.740349 -0.0612291 0.669429 
-124.055 6.0313 -2.3865 113 115 121 36.9597 21845 0.998786 -0.0492022 0.00250723 
-129.608 4.4016 3.619 138 147 155 36.9602 11565 0.0518244 0.00845878 0.99862 
-132.56 4.2511 6.1704 106 115 124 36.9603 22102 0.915148 -0.374637 0.148834 
-120.587 4.9128 -4.2354 148 153 163 36.9633 14649 -0.012683 0.0328888 0.999379 
-123.999 3.7116 -0.3707 120 107 95 36.9641 18247 0.292183 -0.170015 -0.941129 
-128.645 4.0328 3.1366 140 147 157 36.9642 19789 0.0166457 -0.681285 0.731829 
-121.036 5.3181 -4.2497 144 146 154 36.9674 11308 -0.0042683 0.0269925 0.999627 
-122.011 6.253 -4.2955 68 77 89 36.9675 13107 -0.009329 0.0487858 0.998766 
-123.984 7.441 -3.7556 92 97 103 36.9676 22359 0.998698 -0.0507647 -0.00500724 
-122.94 7.0822 -4.3053 74 81 88 36.9715 12593 -0.00987683 -0.0114252 0.999886 
-123.973 7.6567 -3.9818 89 94 101 36.9716 21845 0.969739 -0.0873741 0.227973 
-124.082 5.5687 -2.0127 115 115 119 36.9718 22102 0.997617 -0.0654474 0.0218326 
-121.493 5.7124 -4.2674 120 127 140 36.9754 15420 -0.000227174 0.0390808 0.999236 
-123.148 7.2449 -4.3052 75 82 89 36.9755 13107 -0.0166703 -0.00553919 0.999846 
-124.016 6.6856 -3.0949 105 104 110 36.9757 22616 0.998598 -0.0526594 0.00546801 
-124.064 5.8182 -2.2732 113 114 114 36.9758 22359 0.998607 -0.0525557 0.00476629 
-122.709 6.8278 -4.3063 73 78 87 36.9795 14906 -0.00807514 -0.0122272 0.999893 
-129.864 4.4812 3.6236 141 147 156 36.9802 15420 0.0551642 9.89163e-05 0.998477 
-121.249 5.4408 -4.2559 151 154 164 36.9834 11565 -0.00441966 0.0287617 0.999577 
-123.743 7.7423 -4.3164 69 76 89 36.9836 13364 0.28749 -0.0613226 0.955819 
-123.96 7.818 -4.2095 86 86 93 36.9836 23387 0.832765 -0.0290788 0.552862 
-120.162 4.4061 -4.2151 134 142 144 36.9872 13364 0.00408597 0.0376247 0.999284 
-123.47 7.4693 -4.3131 75 79 92 36.9875 13364 0.0334591 0.000317507 0.99944 
-123.998 7.1025 -3.5539 96 99 106 36.9876 22873 0.998609 -0.0514187 -0.0116665 
-124.051 6.1128 -2.6143 110 112 118 36.9877 21331 0.998697 -0.0510281 -0.000426294 
-124.038 6.3585 -2.8692 108 109 115 36.9917 22873 0.998428 -0.0550404 0.0105936 
-132.549 4.2552 5.9178 109 113 125 36.9923 9509 -0.451886 -0.825212 0.338857 
-122.245 6.3228 -4.3043 65 73 83 36.9955 3084 -0.00824182 0.0397389 0.999176 
-130.102 4.5736 3.6218 127 133 142 36.9962 16191 -0.0572346 -0.185064 0.981058 
-120.373 4.5512 -4.2192 138 144 153 36.9993 12593 -0.00728846 0.032934 0.999431 
-121.719 5.7944 -4.266 63 72 82 36.9994 11051 4.20166e-05 0.0390619 0.999237 
-124.008 6.8921 -3.4214 99 101 105 36.9996 22102 0.998675 -0.0505744 -0.00950354 
-122.53 6.5389 -4.3096 40 50 57 37.0035 1799 -0.00835471 0.00789892 0.999934 
-120.826 4.9434 -4.2419 148 152 166 37.0073 13878 -0.0106514 0.0279005 0.999554 
-132.773 4.2191 6.005 108 114 127 37.0083 8738 0.466055 -0.7937 0.390939 
-122.006 6.001 -4.2773 67 75 84 37.0115 11051 -0.00443722 0.0561669 0.998412 
-130.355 4.6713 3.6238 129 136 143 37.0122 10794 -0.125037 -0.413494 0.90188 
-122.95 6.8416 -4.3087 75 83 90 37.0155 12079 -0.00692464 -0.0164375 0.999841 
-123.398 7.2386 -4.3124 74 80 89 37.0155 16448 -0.0178684 -0.0023598 0.999838 
-123.984 7.4172 -4.0068 90 91 96 37.0156 22359 0.97579 -0.0248478 0.217295 
-123.995 7.202 -3.8021 93 98 104 37.0156 22873 0.998854 -0.0478511 0.000789549 
-124.079 5.5792 -2.2531 113 113 116 37.0158 22102 0.998253 -0.0577572 0.0124716 
-120.586 4.668 -4.2284 139 140 151 37.0193 9509 -0.0118788 0.0315938 0.99943 
-124.029 6.4369 -3.0979 102 106 108 37.0197 23387 0.99847 -0.0550925 0.00470358 
-121.036 5.0617 -4.2448 152 155 166 37.0234 8995 -0.00822409 0.0305305 0.9995 
-121.489 5.47 -4.2582 121 129 142 37.0234 11565 -0.00118216 0.0283835 0.999596 
-123.169 6.9866 -4.3075 77 80 91 37.0235 14649 -0.0117526 -0.00615181 0.999912 
-123.722 7.477 -4.3156 68 75 87 37.0235 12850 0.226036 -0.0362513 0.973444 
-124.063 5.8757 -2.578 111 111 115 37.0237 21588 0.998656 -0.0518246 -0.000220003 
-123.972 7.5705 -4.2239 85 88 98 37.0276 22616 0.769236 -0.00498506 0.638945 
-124.019 6.6559 -3.3488 99 101 106 37.0276 22616 0.99858 -0.052809 -0.00705199 
-124.091 5.3455 -2.1103 114 114 113 37.0318 23130 0.997094 -0.0720808 0.0246473 
-130.644 4.7807 3.6176 97 93 91 37.0322 11822 0.0464086 0.207155 0.977207 
-122.771 6.582 -4.314 59 65 74 37.0355 13878 -0.0103553 0.00700079 0.999922 
-124.052 6.1086 -2.8628 108 110 112 37.0357 21331 0.998465 -0.0549482 0.00693414 
-124.357 3.6592 -0.3703 128 110 99 37.036 18761 0.0167811 -0.40391 -0.914645 
-121.25 5.1832 -4.2519 139 137 148 37.0394 14135 -0.00539689 0.027473 0.999608 
-122.242 6.0737 -4.2851 68 74 85 37.0395 10023 -0.0084715 0.0532104 0.998547 
-122.49 6.2811 -4.2993 74 79 89 37.0435 13878 -0.00621059 0.0515006 0.998654 
-120.161 4.1634 -4.2051 147 149 159 37.0472 13107 -0.00490988 0.0374376 0.999287 
-124.007 6.9672 -3.7529 94 98 104 37.0476 22616 0.998727 -0.0503364 -0.00317433 
-124.075 5.6535 -2.4873 112 113 116 37.0477 20817 0.998446 -0.0557197 2.6583e-05 
-130.902 4.8808 3.6238 91 84 82 37.0482 11051 0.140323 0.360604 0.922103 
-121.719 5.5385 -4.2605 68 79 90 37.0514 11308 -0.00299585 0.0329429 0.999453 
-121.963 5.7539 -4.2677 66 74 84 37.0514 10280 -0.00624142 0.0362837 0.999322 
-123.655 7.2296 -4.3182 73 80 90 37.0555 18247 0.0800902 0.00989663 0.996738 
-123.417 6.996 -4.3115 74 80 85 37.0595 15934 -0.0152634 -0.00252474 0.99988 
-120.37 4.2866 -4.2129 149 153 165 37.0633 11051 -0.0101388 0.0386195 0.999203 
-120.825 4.6916 -4.2313 141 144 152 37.0633 12079 -0.012105 0.0317355 0.999423 
-123.995 7.1719 -4.0426 92 93 101 37.0636 22359 0.980906 -0.0109837 0.194172 
-124.017 6.7548 -3.6382 96 99 106 37.0636 22616 0.998669 -0.0508631 -0.00856705 
-124.043 6.1971 -3.1 104 105 110 37.0637 22102 0.998397 -0.056017 0.0081032 
-131.161 4.9804 3.6256 40 49 44 37.0642 14649 -0.0487441 -0.127991 0.990577 
-123.012 6.609 -4.3132 62 67 78 37.0675 16448 -0.00599036 0.00564192 0.999966 
-122.73 6.3431 -4.3086 67 77 86 37.0715 2570 -0.00561467 0.0475787 0.998852 
-123.985 7.3218 -4.2357 84 89 95 37.0716 22873 0.774294 -0.0601532 0.629961 
-124.03 6.4077 -3.3499 103 104 109 37.0716 23130 0.998507 -0.0544763 -0.00404956 
-124.065 5.8661 -2.8182 109 112 113 37.0717 21331 0.998569 -0.05305 0.00678712 
-120.576 4.4169 -4.2185 135 137 146 37.0753 11565 -0.0120186 0.0327563 0.999391 
-121.034 4.8202 -4.2364 143 149 159 37.0753 10280 -0.0101926 0.030294 0.999489 
-121.493 5.2219 -4.2516 123 128 138 37.0754 12336 -0.00016135 0.0252795 0.99968 
-122.197 5.8338 -4.2713 66 71 81 37.0755 12593 -0.0101719 0.0347024 0.999346 
-123.234 6.7473 -4.3112 81 87 99 37.0755 17219 -0.00674325 -0.00840825 0.999942 
-124.09 5.3768 -2.3838 115 114 118 37.0797 22359 0.998089 -0.0612385 0.00825973 
-131.419 5.0792 3.6272 33 41 49 37.0802 15163 0.0292723 0.0938706 0.995154 
-122.476 6.0162 -4.2813 68 75 89 37.0875 10794 -0.00603474 0.0552053 0.998457 
-121.246 4.9323 -4.2414 74 80 91 37.0914 12593 -0.00687586 0.0273967 0.999601 
-124.027 6.521 -3.5661 98 100 106 37.0916 22102 0.998636 -0.0517995 -0.00648234 
-131.705 5.198 3.6303 35 39 44 37.0962 13364 0.0331413 0.0658304 0.99728 
-121.963 5.5089 -4.2594 73 82 91 37.0994 11565 -0.0129628 0.0285228 0.999509 
-123.657 6.9689 -4.3166 73 77 89 37.0995 15677 0.201579 -0.100514 0.974301 
-124.008 6.9342 -4.011 91 93 99 37.0996 23130 0.978615 -0.0398801 0.201799 
-124.056 5.9605 -3.0584 102 105 112 37.0997 23130 0.998555 -0.05311 0.00817474 
-124.078 5.6335 -2.7344 113 114 118 37.0997 21588 0.998488 -0.0548781 0.00333114 
-121.737 5.2948 -4.2507 73 81 92 37.1034 10794 0.000716013 0.0293132 0.99957 
-120.163 3.9234 -4.194 128 135 146 37.1072 12850 -0.0132404 0.0347003 0.99931 
-123.869 7.1021 -4.3193 76 83 95 37.1075 16962 0.550162 -0.0287387 0.834563 
-122.705 6.0925 -4.2885 71 77 86 37.1115 10794 -0.0068179 0.0563111 0.99839 
-122.981 6.3393 -4.3082 72 78 94 37.1115 5140 -0.00685591 0.0443398 0.998993 
-123.485 6.7553 -4.3105 79 84 99 37.1115 14649 -0.0213453 -0.000639494 0.999772 
-132.004 5.3232 3.63 31 33 44 37.1121 13364 -0.0139845 0.214251 0.976678 
-124.018 6.7238 -3.8901 95 97 102 37.1156 22616 0.999048 -0.0390778 0.0194047 
-124.103 5.1426 -2.3316 116 118 120 37.1157 23130 0.996628 -0.0791457 0.0216288 
-120.816 4.4432 -4.2229 135 140 146 37.1193 11051 -0.0150637 0.0315719 0.999388 
-124.046 6.1614 -3.3586 103 106 110 37.1196 22102 0.998488 -0.0548598 -0.00340577 
-124.089 5.4203 -2.6247 111 110 113 37.1197 20560 0.998554 -0.0537352 0.00123133 
-120.381 4.0395 -4.2041 140 149 150 37.1272 14649 -0.0126815 0.034252 0.999333 
-121.483 4.9778 -4.2472 76 85 99 37.1274 14135 -0.00268809 0.0261463 0.999655 
-122.199 5.5789 -4.2671 74 80 92 37.1274 15163 -0.0115935 0.0276062 0.999552 
-123.201 6.4431 -4.3162 54 65 68 37.1275 3855 -0.00894778 0.0228088 0.9997 
-132.262 5.4077 3.6275 27 37 49 37.1281 15163 -0.28328 -0.0726693 0.95628 
-122.426 5.7486 -4.2713 66 75 84 37.1315 10537 -0.00733006 0.0294954 0.999538 
-121.035 4.5666 -4.2318 146 145 155 37.1353 14649 -0.0122335 0.0322046 0.999406 
-120.586 4.1677 -4.2113 140 150 158 37.1393 11822 -0.0131693 0.0342139 0.999328 
-124.041 6.2791 -3.5786 100 102 111 37.1396 22616 0.998705 -0.0507305 -0.00380649 
-124.07 5.7221 -3.0272 108 109 117 37.1397 22616 0.998542 -0.0531956 0.00915449 
-124.032 6.4896 -3.8066 94 100 107 37.1436 21845 0.998829 -0.0483773 -0.000739825 
-121.245 4.6876 -4.234 70 80 92 37.1473 8995 -0.0104067 0.0264916 0.999595 
-123.43 6.521 -4.3159 39 55 58 37.1475 7710 -0.0113037 0.0134338 0.999846 
-121.71 5.056 -4.2474 76 83 96 37.1514 11822 0.000461518 0.0253635 0.999678 
-122.656 5.8401 -4.2761 72 81 92 37.1515 11822 -0.00610016 0.0297339 0.999539 
-122.945 6.0831 -4.288 71 77 89 37.1515 14392 -0.00805456 0.0599101 0.998171 
-123.726 6.736 -4.3168 76 77 84 37.1515 14906 0.189888 -0.0167563 0.981663 
-124.006 6.9049 -4.265 88 91 98 37.1515 22102 0.670204 -0.0435304 0.740899 
-121.984 5.2614 -4.2525 70 80 90 37.1554 12336 -0.00846169 0.0317995 0.999458 
-124.058 5.925 -3.3118 104 107 115 37.1556 22359 0.998761 -0.0496966 0.00258462 
-124.102 5.1853 -2.572 115 114 119 37.1557 22616 0.997735 -0.0656106 0.0148607 
-123.165 6.1817 -4.2957 74 79 91 37.1675 12850 -0.0139898 0.0506326 0.998619 
-124.018 6.6947 -4.1422 84 88 96 37.1675 23387 0.89311 0.0133019 0.449642 
-124.083 5.4917 -2.9405 111 113 118 37.1677 21845 0.998531 -0.0533358 0.00950464 
-120.161 3.675 -4.1899 138 137 154 37.1752 12593 -0.0208378 0.0336875 0.999215 
-122.215 5.3391 -4.261 71 83 93 37.1794 12593 -0.0153307 0.0297315 0.99944 
-120.826 4.1861 -4.2115 135 134 139 37.1833 10537 -0.0146282 0.0362483 0.999236 
-121.488 4.7316 -4.24 75 80 92 37.1834 10794 -0.00394181 0.024993 0.99968 
-122.432 5.5002 -4.2718 73 81 90 37.1834 17219 -0.0121037 0.0256553 0.999598 
-124.056 6.0318 -3.5645 99 104 109 37.1836 23130 0.998811 -0.0486888 0.00247501 
-120.37 3.798 -4.194 134 139 150 37.1872 14135 -0.0133791 0.032557 0.99938 
-123.408 6.2746 -4.3056 73 80 92 37.1875 14906 -0.0154742 0.0342587 0.999293 
-123.677 6.4988 -4.3205 41 54 64 37.1875 7967 0.194145 -0.0342226 0.980376 
-124.096 5.2755 -2.8264 112 113 117 37.1877 22616 0.998614 -0.0523622 0.00537129 
-121.03 4.3245 -4.2226 143 144 159 37.1913 11051 -0.0126481 0.033066 0.999373 
-122.901 5.8287 -4.2752 73 81 91 37.1915 10537 -0.00836843 0.0323796 0.999441 
-124.042 6.25 -3.828 96 98 105 37.1916 22359 0.998872 -0.0474097 0.0027467 
-124.03 6.464 -4.0657 90 94 99 37.1955 22102 0.984516 -0.0623095 0.163847 
-124.068 5.6804 -3.2789 106 107 109 37.1956 22359 0.998698 -0.0509343 0.00279319 
-121.949 5.0235 -4.2451 68 80 90 37.1994 10280 -0.005931 0.0286548 0.999572 
-122.657 5.5968 -4.272 76 83 92 37.1994 11565 -0.00551006 0.0234576 0.99971 
-124.113 4.9454 -2.5548 113 114 119 37.1997 21331 0.99682 -0.0764278 0.0225559 
-120.589 3.9143 -4.2003 138 140 145 37.2032 12593 -0.0140074 0.0349943 0.999289 
-121.251 4.4375 -4.2299 75 82 92 37.2073 12079 -0.0111671 0.0280593 0.999544 
-121.718 4.8073 -4.2415 69 82 94 37.2074 11051 0.00711379 0.0253752 0.999653 
-123.137 5.9368 -4.2825 72 79 86 37.2075 10537 -0.0174192 0.0407115 0.999019 
-123.93 6.5744 -4.3336 42 54 60 37.2115 6425 0.559964 0.0104721 0.828451 
-124.065 5.7942 -3.5174 102 106 113 37.2196 22359 0.998805 -0.0487142 0.00401919 
-132.005 4.5002 3.619 130 136 142 37.2201 15677 0.513872 0.847856 0.130677 
-122.178 5.0946 -4.2494 70 82 97 37.2234 11308 -0.0130282 0.0325321 0.999386 
-124.083 5.4523 -3.1919 108 110 114 37.2236 21588 0.998573 -0.0528669 0.00749142 
-123.373 6.0248 -4.294 72 80 94 37.2275 11308 -0.023243 0.049123 0.998522 
-123.658 6.2577 -4.3112 71 76 83 37.2275 15163 0.0455461 0.0148631 0.998852 
-124.108 5.0352 -2.7871 112 114 119 37.2277 22102 0.997984 -0.062076 0.0131839 
-132.254 4.5913 3.6236 127 127 136 37.2321 10794 0.148971 -0.0543267 0.987348 
-130.839 4.0184 3.1422 107 112 115 37.2321 19018 -0.383549 -0.916219 -0.115899 
-122.438 5.2451 -4.2581 76 86 100 37.2354 12850 -0.00975185 0.0344949 0.999357 
-124.052 6.0078 -3.8188 97 98 106 37.2355 22359 0.998936 -0.0443849 0.0125585 
-136.152 4.3286 6.7172 87 81 90 37.2362 18247 -0.0612734 -0.980817 -0.185051 
-120.162 3.4304 -4.1813 134 137 145 37.2431 11565 -0.0129472 0.0337531 0.999346 
-121.493 4.4783 -4.2344 74 85 101 37.2433 11308 -0.001655 0.0308918 0.999521 
-122.899 5.5688 -4.2733 72 82 92 37.2435 14392 -0.00600745 0.024265 0.999688 
-124.044 6.2188 -4.0724 90 95 102 37.2435 22102 0.975286 -0.0223904 0.21981 
-124.096 5.2366 -3.0722 110 112 116 37.2436 22616 0.998599 -0.0520377 0.00958167 
-120.832 3.9404 -4.2055 147 153 163 37.2472 11822 -0.0130647 0.035464 0.999286 
-122.673 5.3545 -4.2652 74 86 101 37.2514 15163 -0.00433164 0.0323862 0.999466 
-123.118 5.6959 -4.2761 72 82 91 37.2515 10537 -0.0124965 0.0275596 0.999542 
-123.909 6.3264 -4.3178 68 76 84 37.2515 16448 0.572572 -0.0337629 0.819159 
-132.502 4.6205 3.6312 108 105 105 37.2521 14649 -0.489959 0.0899586 0.867091 
-136.439 4.4025 6.7213 92 93 95 37.2522 8738 -0.300853 -0.938968 -0.166815 
-120.373 3.5522 -4.1871 126 129 139 37.2552 11822 -0.0136636 0.0310519 0.999424 
-121.039 4.0751 -4.2165 148 156 167 37.2553 12593 -0.0153698 0.0357225 0.999244 
-121.961 4.781 -4.2385 65 75 83 37.2554 10280 -0.00175374 0.0282428 0.9996 
-139.434 4.4229 8.8136 122 121 126 37.2602 11308 -0.811486 -0.526009 0.25457 
-121.719 4.5664 -4.2364 70 80 93 37.2633 9766 0.00428674 0.0286273 0.999581 
-124.076 5.5511 -3.4959 102 107 113 37.2636 21331 0.998862 -0.0475098 0.00410567 
-137.453 4.5983 7.1624 129 137 149 37.2642 8224 0.620631 -0.783018 0.0412164 
-121.251 4.1887 -4.2204 75 89 101 37.2673 12850 -0.0105697 0.0399217 0.999147 
-123.34 5.787 -4.2827 70 80 92 37.2675 15163 -0.0217768 0.0353235 0.999139 
-120.591 3.6641 -4.1955 127 128 142 37.2712 11051 -0.00979854 0.031721 0.999449 
-123.611 5.986 -4.303 68 77 86 37.2715 12079 -0.0231084 0.0448996 0.998724 
-124.062 5.7699 -3.7635 100 100 105 37.2715 22873 0.998896 -0.0467695 0.00431166 
-124.122 4.7938 -2.7567 115 115 119 37.2717 23130 0.997014 -0.0720213 0.0278448 
-136.722 4.4062 6.7161 126 123 141 37.2762 19018 0.0395839 -0.988959 0.142807 
-122.196 4.8321 -4.2407 73 82 95 37.2834 9509 -0.00896644 0.0323258 0.999437 
-123.837 6.0956 -4.3118 67 75 87 37.2835 12850 0.380618 -0.0797575 0.921286 
-124.11 4.9966 -3.0261 112 112 118 37.2836 22616 0.998706 -0.0502212 0.00807068 
-137.818 4.6546 7.1915 126 135 144 37.2842 16191 -0.00809992 -0.992663 -0.120642 
-122.403 4.9755 -4.2524 74 82 95 37.2874 6425 -0.0109713 0.0339383 0.999364 
-124.053 5.9773 -4.0602 94 97 104 37.2875 21845 0.973785 -0.0477274 0.222407 
-139.43 4.4166 8.5538 121 120 126 37.2882 11051 -0.940282 -0.334231 0.0644998 
-124.089 5.319 -3.4015 106 107 113 37.2916 21331 0.99874 -0.0496798 0.00709424 
-122.914 5.3226 -4.2675 77 82 96 37.2954 12593 -0.00648708 0.0307969 0.999505 
-132.684 4.5801 3.4773 107 104 109 37.2961 22616 -0.825905 0.369268 0.426053 
-122.627 5.0867 -4.2563 75 84 92 37.2994 13364 -0.00886255 0.0358717 0.999317 
-138.1 4.7185 7.1899 134 139 152 37.3002 15934 -0.838344 -0.529508 0.129618 
-137.008 4.4071 6.7179 129 137 150 37.3002 15163 -0.443589 -0.875632 -0.191042 
-121.493 4.2276 -4.2284 75 87 100 37.3033 15677 0.00107105 0.0407222 0.99917 
-123.125 5.4377 -4.269 77 86 96 37.3034 12593 -0.0119809 0.0323043 0.999406 
-120.832 3.6917 -4.1951 147 153 164 37.3112 10794 -0.014486 0.0370831 0.999207 
-121.966 4.5345 -4.2306 78 83 97 37.3114 11051 0.0025391 0.0290145 0.999576 
-124.1 5.1064 -3.2823 107 110 113 37.3116 21845 0.998605 -0.051744 0.0105486 
-130.896 4.0154 2.6509 128 134 144 37.3121 13107 -0.444272 -0.884272 0.143823 
-138.368 4.7939 7.1992 139 143 159 37.3121 10794 -0.0107711 -0.0189941 -0.999762 
-120.164 3.1777 -4.1702 137 142 150 37.3151 13107 -0.0104932 0.034943 0.999334 
-123.571 5.7112 -4.2836 70 76 90 37.3155 10280 -0.0176744 0.0398685 0.999049 
-124.077 5.5251 -3.7374 98 102 106 37.3155 21588 0.998776 -0.049397 0.00252569 
-139.438 4.4261 8.2938 120 118 121 37.3162 11822 -0.999876 -0.0094702 -0.0125646 
-121.041 3.8189 -4.2035 146 149 163 37.3193 10794 -0.0132496 0.03623 0.999256 
-121.719 4.322 -4.2265 73 81 93 37.3193 11565 0.0088676 0.0370693 0.999273 
-123.353 5.5323 -4.2784 74 83 96 37.3195 12850 -0.015026 0.0295698 0.99945 
-120.372 3.3089 -4.181 141 151 160 37.3231 11051 -0.0150782 0.0369114 0.999205 
-121.25 3.9434 -4.2105 73 93 104 37.3273 11051 -0.00651304 0.0397297 0.999189 
-123.807 5.8288 -4.2935 64 71 76 37.3275 11308 0.283504 -0.0195489 0.958772 
-124.065 5.7376 -4.0197 90 94 100 37.3275 22616 0.987565 -0.033313 0.153643 
-138.653 4.8636 7.1914 133 145 154 37.3281 13878 0.0421319 0.0967052 -0.994421 
-124.121 4.7519 -3.0093 114 114 121 37.3316 22873 0.997692 -0.0641378 0.0222912 
-124.038 5.962 -4.3044 77 78 83 37.3355 18247 0.606333 -0.0230875 0.794875 
-120.593 3.4145 -4.1854 145 148 162 37.3392 12079 -0.00851821 0.0348323 0.999357 
-122.201 4.5881 -4.2344 74 89 100 37.3394 11565 -0.00541643 0.0336991 0.999417 
-122.88 5.0825 -4.2547 78 90 104 37.3394 13364 -0.00363106 0.0331679 0.999443 
-122.419 4.7312 -4.2423 76 88 99 37.3434 14392 -0.0117032 0.0340073 0.999353 
-124.086 5.3012 -3.6442 101 104 110 37.3435 22616 0.998688 -0.0510857 0.0035305 
-138.932 4.9177 7.1909 116 127 129 37.3441 15934 0.204423 0.303909 -0.930511 
-139.414 4.4259 8.0266 114 113 116 37.3442 11308 -0.967772 -0.244366 0.0608568 
-130.971 4.0615 2.4243 131 136 143 37.3481 8481 -0.435102 -0.898381 -0.0599839 
-122.643 4.8412 -4.2474 70 84 97 37.3554 10794 -0.00947758 0.0328881 0.999414 
-123.109 5.1737 -4.2572 72 82 96 37.3554 11051 -0.00682386 0.0328938 0.999436 
-124.112 4.869 -3.2476 110 112 115 37.3556 21588 0.998666 -0.0509168 0.00858634 
-139.221 5.0083 7.1907 118 127 140 37.3561 12850 -0.395907 0.13041 -0.908983 
-121.491 3.9836 -4.2162 74 85 99 37.3633 14906 0.00287713 0.0406928 0.999168 
-123.329 5.2839 -4.2693 71 83 95 37.3674 16448 -0.0123388 0.035967 0.999277 
-123.586 5.4712 -4.2801 75 83 94 37.3675 13107 0.0119254 0.0337037 0.999361 
-124.098 5.0807 -3.5287 106 108 113 37.3675 22359 0.998685 -0.0509701 0.00557142 
-127.667 3.5792 0.4786 108 112 113 37.368 17476 0.349241 -0.93239 0.0931647 
-139.455 5.0667 7.1823 120 127 141 37.3681 17476 -0.549242 0.0504136 -0.834141 
-121.964 4.2853 -4.2232 74 86 98 37.3713 10537 0.00132956 0.0396354 0.999213 
-124.078 5.4932 -3.9797 92 98 106 37.3715 21845 0.96485 -0.00286476 0.262787 
-120.831 3.4476 -4.1882 146 154 169 37.3792 11308 -0.00755205 0.0343134 0.999383 
-121.717 4.0741 -4.2114 69 83 98 37.3793 10023 0.000662166 0.0435747 0.99905 
-123.821 5.5815 -4.286 70 77 90 37.3795 11822 0.14698 0.0357623 0.988493 
-134.454 5.2593 3.4082 139 135 151 37.38 17476 -0.385305 -0.904104 0.18476 
-124.031 5.7099 -4.2902 70 73 78 37.3835 14906 0.807792 -0.0254549 0.588918 
-121.046 3.5734 -4.1955 141 149 158 37.3872 14649 -0.00868893 0.0368957 0.999281 
-120.161 2.9274 -4.1611 154 162 175 37.3911 13621 -0.00454806 0.0356574 0.999354 
-134.729 5.373 3.3884 139 142 155 37.392 15677 0.168104 0.539172 0.825248 
-130.918 4.0355 2.1242 129 133 137 37.392 10794 -0.469428 -0.882965 0.00303886 
-121.257 3.6983 -4.2058 85 105 111 37.3953 13364 -0.00766094 0.0407052 0.999142 
-122.883 4.8402 -4.2521 77 89 102 37.3954 12336 -0.00559379 0.0338134 0.999413 
-124.129 4.5166 -3.065 115 115 116 37.3956 23901 0.997013 -0.0724171 0.0268487 
-120.372 3.0524 -4.1691 142 146 158 37.3991 13364 -0.0119166 0.0361101 0.999277 
-122.206 4.3431 -4.2273 80 88 101 37.3994 11308 -0.00848349 0.0343126 0.999375 
-122.419 4.4743 -4.2315 77 85 98 37.4034 12850 -0.00688034 0.0334679 0.999416 
-124.089 5.2589 -3.8883 97 100 104 37.4035 22102 0.998712 -0.0187363 0.0471473 
-134.973 5.464 3.3675 138 144 155 37.404 15934 -0.149704 -0.135743 0.979368 
-120.586 3.1649 -4.1768 141 147 158 37.4112 12850 -0.0117201 0.035897 0.999287 
-122.643 4.5984 -4.2385 75 88 101 37.4114 12336 -0.0118657 0.0366953 0.999256 
-123.12 4.9324 -4.2544 77 88 101 37.4114 13364 -0.0072012 0.0325958 0.999443 
-123.564 5.224 -4.2685 69 79 94 37.4155 11051 -0.018847 0.0399264 0.999025 
-124.113 4.834 -3.4948 107 108 112 37.4156 21588 0.998476 -0.0548704 0.00598441 
-135.239 5.568 3.3443 138 144 155 37.416 17219 -0.113373 -0.143941 0.983071 
-124.126 4.6317 -3.2973 112 113 116 37.4196 22873 0.998684 -0.0510642 0.00467416 
-123.344 5.0283 -4.2547 74 86 101 37.4234 13107 -0.0135297 0.0317338 0.999405 
-121.497 3.741 -4.2035 76 87 103 37.4273 10794 0.00109564 0.0342591 0.999412 
-123.797 5.3319 -4.2775 68 77 88 37.4275 11822 0.192956 -0.00377298 0.9812 
-124.077 5.4754 -4.2345 90 93 100 37.4275 21845 0.88902 -0.00902322 0.45778 
-124.1 5.0442 -3.7761 100 103 106 37.4275 22873 0.998618 -0.0500675 0.0159763 
-135.556 5.699 3.3258 140 145 158 37.428 8224 -0.00369407 -0.0855326 0.996329 
-121.956 4.0391 -4.214 74 88 100 37.4313 12336 -0.00233761 0.0408494 0.999163 
-121.722 3.8307 -4.203 74 85 99 37.4433 9766 0.00750897 0.0383076 0.999238 
-135.793 5.7605 3.289 139 146 155 37.444 11565 -0.114271 -0.0413002 0.992591 
-120.827 3.1985 -4.1803 152 155 169 37.4512 11565 -0.00849279 0.0343515 0.999374 
-122.894 4.6 -4.2403 75 86 102 37.4514 14906 -0.00890498 0.0332067 0.999409 
-121.045 3.3296 -4.183 149 148 164 37.4552 8995 -0.0125228 0.0355295 0.99929 
-132.636 4.2408 2.6404 141 149 158 37.456 12079 -0.960534 0.196221 -0.197159 
-122.202 4.1012 -4.2208 78 89 100 37.4594 12850 -0.00528637 0.0387215 0.999236 
-124.086 5.2425 -4.141 93 96 102 37.4595 21845 0.829502 -0.0489235 0.556357 
-121.257 3.4487 -4.192 146 150 158 37.4633 13364 -0.00837117 0.0360057 0.999317 
-122.425 4.2336 -4.2244 73 84 98 37.4634 10794 -0.00685038 0.0366784 0.999304 
-139.156 4.4611 6.7092 47 36 45 37.4641 17990 -0.161183 -0.985905 -0.0448457 
-123.127 4.6885 -4.2439 72 88 97 37.4674 14649 -0.00425854 0.030525 0.999525 
-120.161 2.6856 -4.1574 151 155 168 37.4711 12850 0.0135367 0.0304542 0.999444 
-122.645 4.3504 -4.2311 77 89 101 37.4714 12336 -0.0081109 0.0374716 0.999265 
-123.59 4.9837 -4.2592 73 83 95 37.4715 11308 -0.00807757 0.0290156 0.999546 
-124.139 4.3854 -3.2748 115 114 118 37.4716 22873 0.996727 -0.0780757 0.020959 
-124.113 4.8055 -3.7457 101 103 108 37.4755 22102 0.99853 -0.0539808 0.00484672 
-139.407 4.5147 6.7103 105 93 99 37.4761 18761 -0.182514 -0.962417 -0.201101 
-120.377 2.8022 -4.1599 150 154 163 37.4791 12336 -0.0102733 0.0368963 0.999266 
-124.124 4.5984 -3.5417 107 110 114 37.4795 22102 0.998511 -0.0544249 0.00374677 
-123.362 4.7791 -4.252 77 88 102 37.4834 13107 -0.0113395 0.025364 0.999614 
-123.83 5.0905 -4.2658 69 78 91 37.4835 11822 0.111254 -0.0150596 0.993678 
-124.102 5.0278 -4.021 95 98 102 37.4835 22359 0.949852 -0.0677918 0.305263 
-120.593 2.9249 -4.1695 144 150 163 37.4872 15420 -0.0129517 0.0391895 0.999148 
-121.498 3.4948 -4.1932 125 136 149 37.4953 10280 -2.43031e-05 0.0362925 0.999341 
-132.574 4.2394 2.3134 143 149 157 37.496 10023 -0.981335 -0.192205 0.00620262 
-121.962 3.7829 -4.2035 80 91 107 37.4993 12593 -0.00256383 0.0357452 0.999358 
-121.721 3.5864 -4.2006 91 105 109 37.5113 15420 0.00615795 0.0369401 0.999299 
-122.89 4.3499 -4.2357 76 87 101 37.5114 12079 -0.00709448 0.0353487 0.99935 
-122.199 3.8597 -4.2058 79 91 106 37.5194 15420 -0.00671779 0.0402479 0.999167 
-122.419 3.9902 -4.2149 74 91 105 37.5234 11822 -0.00761326 0.0406407 0.999145 
-123.112 4.4422 -4.2385 80 90 100 37.5234 14392 -0.00710547 0.0397083 0.999186 
-120.838 2.9552 -4.1707 149 149 158 37.5272 13364 -0.011392 0.0343286 0.999346 
-122.633 4.1107 -4.219 83 92 105 37.5274 13364 -0.00658951 0.0414329 0.99912 
-121.052 3.0817 -4.1783 148 155 167 37.5312 12850 -0.00877814 0.0331224 0.999413 
-123.606 4.7292 -4.2546 72 83 97 37.5315 12336 -0.0157329 0.0309999 0.999396 
-124.068 5.0191 -4.2596 79 79 88 37.5315 13107 0.642052 0.00842572 0.766615 
-124.114 4.7867 -3.987 98 101 107 37.5315 22102 0.993552 -0.0160166 0.11224 
-124.138 4.3515 -3.515 111 112 117 37.5316 21588 0.997926 -0.0623916 0.015857 
-132.569 4.2402 2.0505 140 146 156 37.532 22359 0.626603 -0.745017 0.228732 
-121.264 3.2052 -4.1846 149 154 167 37.5353 12336 -0.00477227 0.0332276 0.999436 
-123.342 4.5397 -4.2438 79 90 104 37.5354 14135 -0.0138477 0.0362641 0.999246 
-123.83 4.8381 -4.2607 71 82 93 37.5395 12850 0.2437 -0.0400818 0.969022 
-124.127 4.5695 -3.7876 103 105 109 37.5395 22102 0.998657 -0.0421717 0.0301022 
-120.164 2.4347 -4.1443 143 151 163 37.5551 15420 0.0238608 0.0285869 0.999306 
-120.376 2.5568 -4.1498 148 154 169 37.5591 14906 -0.00432769 0.0352397 0.99937 
-139.34 4.4269 5.9822 101 105 111 37.5601 10794 -0.717135 -0.690365 -0.0954718 
-120.586 2.6796 -4.1571 144 152 161 37.5632 11565 -0.0117114 0.0404057 0.999115 
-121.504 3.2515 -4.1895 166 167 173 37.5673 14906 -0.000293743 0.0359534 0.999353 
-121.955 3.5277 -4.1944 90 110 110 37.5673 12079 -0.00203012 0.033006 0.999453 
-128.205 3.6036 -0.304 156 154 163 37.5679 14649 -0.00721292 -0.877012 -0.480413 
-132.562 4.2383 1.7954 143 151 162 37.568 22102 0.0466093 -0.932442 0.358301 
-122.874 4.0919 -4.2223 81 89 102 37.5714 14392 -0.00506271 0.0430194 0.999061 
-121.729 3.3461 -4.1893 165 171 185 37.5793 13364 0.000133375 0.0393702 0.999225 
-123.101 4.2015 -4.2273 79 89 100 37.5794 12336 -0.00758902 0.0416537 0.999103 
-122.19 3.6155 -4.1978 82 96 108 37.5834 12079 -0.00485305 0.0324474 0.999462 
-122.402 3.7307 -4.2013 85 94 107 37.5874 11308 -0.00727289 0.0344712 0.999379 
-123.588 4.4779 -4.2462 72 85 101 37.5875 12079 -0.0143098 0.0397502 0.999107 
-124.109 4.7774 -4.2355 89 91 94 37.5875 22616 0.684013 -0.0160948 0.729292 
-122.625 3.8592 -4.2122 84 96 109 37.5914 13364 -0.00845296 0.0402726 0.999153 
-123.336 4.2986 -4.2319 80 90 102 37.5915 12079 -0.00834748 0.0427957 0.999049 
-124.138 4.3249 -3.7564 103 107 108 37.5915 22616 0.998606 -0.0525385 0.00516355 
-123.818 4.5888 -4.2538 74 83 98 37.5955 10794 0.222351 -0.0331365 0.974403 
-139.361 4.4141 5.6708 105 105 108 37.5961 13107 -0.966011 -0.25751 0.0226081 
-124.125 4.5468 -4.0347 97 101 108 37.5995 21845 0.959 -0.0148016 0.283019 
-120.831 2.7134 -4.1622 141 148 158 37.6032 12593 -0.0131012 0.0366284 0.999243 
-124.151 4.1173 -3.5807 112 113 117 37.6036 22873 0.912938 -0.402916 0.0648253 
-121.047 2.8362 -4.1704 148 156 163 37.6072 14906 -0.00807709 0.0355119 0.999337 
-121.259 2.9543 -4.1773 134 142 150 37.6113 19018 -0.00424135 0.0348869 0.999382 
-135.577 4.3771 3.1528 60 44 45 37.6201 19018 0.130248 -0.618377 -0.775013 
-139.389 4.4274 5.3503 111 112 118 37.6321 11051 -0.583559 -0.811731 0.0234809 
-122.869 3.8385 -4.2102 84 95 105 37.6354 11822 -0.00650635 0.0393545 0.999204 
-135.831 4.4005 3.155 93 93 95 37.6361 19275 0.107895 -0.717179 -0.688486 
-121.495 3.004 -4.1774 161 167 178 37.6393 13364 0.00306067 0.0381868 0.999266 
-121.963 3.2792 -4.1846 167 173 184 37.6394 12850 -0.00290173 0.0376309 0.999287 
-123.086 3.9567 -4.2191 78 89 102 37.6394 14649 -0.00336977 0.041733 0.999123 
-120.376 2.315 -4.1384 144 148 160 37.6431 12079 0.00292977 0.0332937 0.999441 
-123.577 4.2371 -4.2341 77 90 103 37.6435 13621 -0.0158876 0.0452686 0.998849 
-120.164 2.1867 -4.1422 152 158 170 37.6471 11822 0.0254145 0.0234555 0.999402 
-120.588 2.4341 -4.1478 145 151 161 37.6472 16705 -0.0138318 0.038016 0.999181 
-121.713 3.1044 -4.1775 156 162 172 37.6473 12079 0.00300166 0.037111 0.999307 
-123.321 4.0482 -4.2206 84 93 107 37.6515 11822 -0.00971323 0.0419073 0.999074 
-123.8 4.3414 -4.2423 76 83 97 37.6515 12593 0.073798 -0.00291213 0.997269 
-124.137 4.3084 -4.0019 109 106 115 37.6515 21331 0.945452 -0.108018 0.30733 
-122.2 3.37 -4.1928 174 180 195 37.6554 12850 -0.0088132 0.0313375 0.99947 
-122.621 3.6192 -4.2031 83 95 105 37.6554 11565 -0.00667763 0.031733 0.999474 
-124.035 4.466 -4.2496 68 77 85 37.6555 12593 0.579425 0.0108235 0.814954 
-135.69 4.3972 2.9138 82 73 74 37.656 19532 -0.00128476 -0.900578 -0.434693 
-136.1 4.4081 3.152 115 110 120 37.6561 20560 -0.143587 -0.760681 -0.633046 
-122.415 3.481 -4.195 112 128 132 37.6594 12850 -0.00908072 0.0293429 0.999528 
-124.149 4.0944 -3.8334 100 102 106 37.6675 22616 0.974371 -0.183806 0.129675 
-124.161 3.8769 -3.5931 129 122 122 37.6676 22102 0.519931 -0.822469 0.230688 
-135.943 4.4091 2.9293 95 94 96 37.672 20560 0.61647 -0.787132 0.0197093 
-135.639 4.3932 2.6716 74 61 65 37.684 19789 0.185063 -0.925879 0.329394 
-120.826 2.4656 -4.1547 136 143 156 37.6872 14135 -0.015223 0.03993 0.999087 
-121.039 2.5908 -4.162 154 155 173 37.6872 13364 -0.00982712 0.0380835 0.999226 
-121.252 2.7024 -4.1669 157 163 176 37.6913 13621 -0.00230703 0.0372104 0.999305 
-122.87 3.5909 -4.2007 83 99 113 37.7034 12593 -0.00545734 0.0349488 0.999374 
-123.084 3.7137 -4.2061 83 96 110 37.7035 12336 -0.00475427 0.0378521 0.999272 
-123.558 3.9888 -4.2209 74 91 102 37.7035 12079 -0.0134841 0.0393731 0.999134 
-135.927 4.4089 2.6691 95 93 96 37.704 19789 0.845854 -0.528568 -0.0717336 
-121.943 3.0337 -4.1769 161 165 178 37.7114 10280 -0.0054533 0.0372233 0.999292 
-123.779 4.0915 -4.233 77 88 98 37.7115 11308 0.0757364 0.0389306 0.996368 
-123.322 3.8076 -4.2124 85 98 114 37.7155 13878 -0.0089286 0.0352671 0.999338 
-123.994 4.1995 -4.2389 73 83 95 37.7155 12336 0.484459 0.008898 0.874769 
-121.492 2.7557 -4.1684 164 167 183 37.7193 12079 0.0041679 0.0366137 0.999321 
